173.4126426947949,0.22221025280590215,315.47338613674634
176.50559131278152,0.155354171159296,321.8147898085853
262.4552237185233,0.11437613661850728,292.6505409776518
12.270976359534984,0.08333961592770625,312.8395887576135
77.0133591470954,0.23735166170280855,296.74958774769885
726.0859807014969,0.2477115302253194,316.3549671100464
585.4945584650951,0.11712592300886378,312.59499534401795
173.59581863750532,0.2822341949293945,278.1483895701656
357.48740164909776,0.12358935212790906,272.5262648626941
602.3618854680526,0.1441091458100471,285.1135155165883
620.7015755966927,0.20845387755780181,303.6561740980269
38.19547067171965,0.25531468277020586,320.9338660812058
421.70990079916544,0.15352103200383532,315.7669823697404
454.0375825464517,0.17787242168874773,315.2179400259777
224.43891163220465,0.21711128398929744,279.49379117251874
44.675325013563594,0.25607662367427836,333.98517766645796
494.3955317711932,0.20232767913586108,300.60162457070123
643.1139719727198,0.18585373144450554,314.22259535654194
194.53955276536306,0.23679531669596696,311.08457145812116
34.56829309458237,0.18741704989248525,333.83317303866676
318.7710286710576,0.2501312651562932,301.81282761614403
814.768888608087,0.16116067866787398,297.65650269696084
100.43512335682746,0.285996930124207,279.10193214852393
210.69503525856015,0.15115096365049538,354.05050022878874
-101.49290856672434,0.1436193749173809,319.05155915998915
380.40771810734526,0.22462201113712146,286.0580442705057
258.371728685027,0.1350963490631012,261.19986017624603
120.16507357705657,0.2681937853331684,315.34933695973183
288.3166325377217,0.24641609448824434,283.0118796189384
429.954002313991,0.14410355618226792,310.27756670588263
462.38117601724684,0.1609622249420706,308.75428466453934
229.82452227074606,0.24071625658292145,301.91306481107813
94.26646197870912,0.20265271156805745,309.3029354474428
159.07586149687003,0.21210627006981467,290.61363193310416
247.41784423435183,0.256664366609518,274.4204812140865
156.72862055314465,0.16357579351443263,292.98742473252537
183.30572666660703,0.1780827742415909,288.11353261722553
105.98206196797989,0.2038551064189169,279.3643742417449
319.68682948371486,0.05439030342325013,293.5607284283601
157.37822692872857,0.2245295522011549,303.08452768627683
446.5420984471032,0.2102538326515703,308.68614179252796
169.9081576654451,0.14086802886646604,264.5512670320609
606.9571179439474,0.25000675621969093,284.8234151778062
110.82942924909787,0.21863958004170392,312.40872208256536
-129.29467311941795,0.24596681948418492,324.2973605538517
559.7591110115839,0.2842567259859973,279.54556479360485
668.8675043766902,0.2246580149269565,324.69681908749675
447.6736778984883,0.22367865222245598,284.2874174810417
527.8234740483912,0.23280262751344366,308.11524279217775
237.5043273987262,0.18648828921474395,313.9753239839609
376.1138134870035,0.1634386469838812,275.02873607073576
180.1960564127052,0.23902268887874256,303.3410610010731
489.3456429778531,0.18408894912950138,299.41710161276905
-8.807396436184263,0.20893138157922214,283.3969023276239
339.4175896907051,0.20466787036256534,310.9111727605472
101.37543126800301,0.2339289900354306,298.64639329187827
479.9740353339846,0.1781691227956873,325.3714549882623
273.67809874719734,0.13989922460010787,327.426932684419
560.2973989509017,0.09676409901076355,288.31483288796016
370.70297829864734,0.29270120380002634,263.4129085164217
257.54815645448315,0.24257873204260247,316.4805550455554
280.6551412677869,0.25204606779782546,284.7874737090188
334.679861352808,0.29712459183698603,257.33289290480405
327.21750460021946,0.12015197485382458,310.49042462992554
214.54113553630052,0.23341299553007766,297.1753635656002
782.0585443012626,0.25237688755750465,306.2690412260222
85.84803237188444,0.24630775866332252,342.5109778274127
431.34047850647306,0.16333287862214962,275.61812184559653
537.1820599022253,0.16544436467855597,279.7894454581524
164.58575461022252,0.2095022985222747,312.53517973527846
76.32905787577627,0.2525695924181859,291.6148928597432
13.774679374219772,0.2531984913976899,318.1960936434073
288.6425696454317,0.09813094700377722,303.25744283196343
127.68217751919946,0.16071664144622644,285.8868538105187
-44.572044532654104,0.20640964572563347,243.28399253020078
421.03202403375036,0.2819011572028132,345.01168820226684
364.2558086511723,0.21526002859789023,298.10852729684916
464.20392963392635,0.1444831960736478,264.94601336110685
528.5245786584113,0.27142154862210105,269.1486102538168
302.8497952502213,0.17266215056207423,279.09113708918096
384.5304002229341,0.1512000977546407,322.3219742116922
438.28120105036896,0.16019982669996277,312.1235345839455
477.5022394498103,0.128732835759241,294.5695435359179
386.9541015077758,0.2404547645429223,344.35393752069666
148.47362074844227,0.25314864291976047,291.65071281551315
170.90782869056477,0.199035508576473,313.83190586912264
297.46092903078727,0.19596835328491352,310.654403869958
83.13829648200564,0.22333280462319605,301.7851949424328
211.43840054189116,0.13134978867307817,292.2596899031873
223.27600418172491,0.126445542243303,274.82686760912924
406.0211846575004,0.22281037106333457,280.1048194862118
367.42809385627646,0.28534821126721543,319.44205849486985
138.21672026113993,0.19244983326654946,300.67266319136996
412.676753006318,0.18343227353586325,293.3136106107839
354.5682937358948,0.18534954387827032,277.0817337563169
92.58718668041021,0.19383119353434408,299.18138239384825
315.14901524160126,0.19502871637693167,286.04822323748357
440.327918476586,0.15711777631434662,301.6988773851032
268.5835114414817,0.34696310385118423,263.8898911499407
372.53974850945133,0.15610324809483397,318.32389695244274
315.3073628077775,0.1868713969994866,264.37945920629477
621.4782403413736,0.1492834432232145,308.3617910357901
423.18467219219497,0.142077884657915,309.3303540139702
225.02665955541835,0.17764655215816796,286.167085345535
366.3115327929313,0.16869068976661855,278.4446654950229
246.31147424730534,0.20729305682716828,294.10774327922803
135.28046907689756,0.30982996101765115,321.1514099307985
10.562225265291659,0.21788558770284763,283.58852283716055
213.56993510447984,0.23844813011103316,331.56199730420025
331.4637062986565,0.21793860664253809,290.57609023184784
289.92029087198716,0.23510420831124684,303.6439219596018
129.63131995979268,0.2044076529506116,315.61423408665047
365.1863232523492,0.25500260908462064,281.7800601000381
225.09705230911953,0.24800815434066553,293.381126994593
99.78477148345883,0.21823644959357863,340.0947618167336
-116.19137637557498,0.18991483916053706,290.8843622592136
-142.4679991109639,0.23947368624654108,296.43027888875264
354.1990613025912,0.1553063970409329,279.62497921729755
421.948122394882,0.17516898933580027,292.3951483592167
-305.2720466249184,0.2098035921253031,287.5198493603363
160.70252043740544,0.13812571998794404,312.9523492431234
288.2073772676818,0.2253897001024979,295.7001076506718
325.6726111419307,0.2259660928475532,295.6801679142032
436.37195916778575,0.27657558111747577,301.64402208237516
-73.54709273093465,0.24768017330982023,298.48184769226657
171.0019598854903,0.11724153402375889,315.47220815851756
317.87574471923244,0.20911364066555443,267.5218791734876
703.1241560241028,0.1964364895435063,349.57893949094824
-28.388345133417715,0.23806868144692933,316.38319053625315
556.7264686775823,0.1760229492205262,278.26184841707965
298.06696548943574,0.23315275502173013,301.2137658643644
250.14366922774514,0.21855717176853864,278.37386091620834
574.659979531534,0.1154660334826121,283.81811208843493
412.5453792952577,0.2841273906707366,255.97956134940105
-336.434323356213,0.09794237731433111,278.58843984945304
283.4349012154013,0.2315078539272411,301.1548948354373
566.3871708104871,0.13990810468362802,320.1912444490667
360.69346274754554,0.2582816414240926,286.79814395220956
590.4863203941594,0.18798251231024132,332.4083691071322
379.32166885855145,0.23580686076748578,329.7338152499454
154.04832074309246,0.24376492124077367,306.066443729839
174.84384458216073,0.18531897715995738,263.68308771962944
532.8333488690837,0.26415846384684294,294.22278589926503
280.4268087792331,0.2070998337791511,313.8190037127087
866.9854425312011,0.20226032986242576,300.3278371303192
395.853280868065,0.13979430258453093,311.1966377675433
401.4892334797321,0.22549002641890759,330.14142347068173
148.74148520348044,0.23716091636724163,297.8793562369767
220.8187507554798,0.11805010455567078,282.99430017018113
438.3975255967995,0.14636540489042638,269.36927172369855
196.89911471912947,0.12301608608377458,298.5419954904173
83.89699001216525,0.27040271849766934,310.9468182001485
815.4030344360127,0.22696975445289042,319.83234903043353
377.88678592182924,0.17570916565995418,274.2300123822361
486.22760531149345,0.2762433479828622,320.48731731625486
208.61383429343599,0.14419745319131622,272.2848408260378
138.74769181398804,0.19925169016791533,305.0689864509333
529.6159823696469,0.24688610286374799,303.21091900140806
476.84962871708024,0.2166162003319759,280.9642418420557
345.30612203502636,0.17378254802245133,341.72287051680036
182.98891191943756,0.19961000086770928,338.78535528638696
25.708205393048047,0.17441175296047023,310.77953466807094
104.22801552228918,0.19710243455358029,258.0392258185948
-34.466444464040364,0.20488801754216798,300.3384628141849
476.99778810466904,0.2097156395469007,289.85517106317275
194.38882395988688,0.15375843796148014,305.123885024372
401.1775679941918,0.1549983302500404,295.09901381865194
463.7928478316993,0.21566659570467356,313.48027724766473
246.75552271780685,0.22796123522589423,282.49080468826213
88.86913503868121,0.2661743247858833,298.1954591588682
282.3879728083998,0.13853154409829668,302.7657292291673
647.9213144486348,0.16843836225414952,305.86565397748205
378.9811782327329,0.2079018374772828,293.14856200538514
85.25612219164285,0.29123901881956227,288.15346536631705
576.8483300345264,0.23004225625027946,297.01878824700015
246.29763888406814,0.20802453449907082,311.19451516969235
227.2679625338863,0.22061702076451356,326.892393740565
162.37008213049336,0.17885579131770296,282.23581651058856
297.38071701089126,0.21711530416371116,304.2910931911248
363.53221015925357,0.2218311517709164,340.71610952249046
681.6870220591358,0.28749975605614947,286.5890472632113
379.7768346476779,0.25153547265740206,299.91775217109614
404.5590443956858,0.15735703367595916,327.1171031241349
362.9638142319669,0.23596792793343208,311.44075775435266
574.1943876976288,0.251851423955432,296.56560696447974
292.20234991937457,0.2201369780606293,276.44025995397914
-26.845261606444694,0.1482972775707237,306.14588843499104
397.65586146944486,0.18418971569297715,318.450218111232
607.7382157938545,0.20327445643827233,298.91273558817636
300.4641524626502,0.3034585063790901,247.04272801087674
118.95453819752905,0.23917534457814885,297.9729132208826
330.78235787821285,0.23076214062890715,321.80475991254866
296.60314130076836,0.24842097242154976,287.47481742506466
139.0792280656359,0.21536219919078076,318.28316967504634
167.9905323409206,0.19805840940623878,301.70029215186355
355.84898453543576,0.19259558987490927,317.48978228985493
350.3028855023013,0.18236231995825017,326.1555314754412
402.56633054712063,0.20755624975603668,306.1284876687157
203.6906353853426,0.2649857556440703,293.8076319899796
539.8634580524151,0.15788884798086017,281.6675440853904
455.70243514155914,0.14268070498375665,296.0010573355624
385.46072044729954,0.1606129753550218,303.6626281640869
407.7868770436156,0.2501362980530315,296.3477647853527
224.02733855481716,0.2320814172302123,338.06303274678817
122.74939179635697,0.22384733695325237,283.7179261137863
303.70911570861887,0.21999794777161452,307.6137654198761
88.7079810329983,0.14942021281151674,295.5709038197064
-21.723695763990463,0.14833035690547097,301.49987644819294
315.96023237305724,0.10992209821887504,291.91292561352594
567.5438300807682,0.16276197091980105,301.49998332091127
-21.926837625539235,0.27074674620556977,327.87564693359434
222.04937362427074,0.13888044568507507,330.10017406014225
359.5371662778883,0.2133800243404464,310.4384578260674
-99.74116264892984,0.22258763184413002,305.9266991266897
319.32624882376365,0.26248476461548814,259.10369792655416
246.6262524331894,0.14808007162920642,294.8014216358858
183.30983349254677,0.24084977927557202,271.22533373729664
385.0369673674785,0.18817631516417055,299.84390975721675
218.18846412983274,0.2894240742697157,291.8538293251563
349.8793876012963,0.1902962966551354,301.59328249697626
331.22779458885236,0.10279742530745853,317.4585026347227
179.07634403255992,0.3317263061486122,280.98530732748213
580.8435138893715,0.248926752110488,275.1710250442683
144.07627997106346,0.10378139300747537,340.1538323378002
256.2886844218659,0.2756119710721412,306.38120929079133
569.4707647508553,0.22675169879512408,318.16708277089975
441.7555419964631,0.21111217491272913,315.7505222862397
266.5833688469184,0.1411957275519666,337.2511208561514
552.8017215925969,0.31565958415666884,303.0458648459754
444.01714798355806,0.1498694793968404,281.3202879480202
485.16604327130915,0.25637123988890914,278.9496840101136
-8.434335399185443,0.15342286724334145,287.11363225914374
445.17429281147315,0.2243075044561283,318.46378967522253
421.60160841893827,0.27529298972105926,297.55599178360785
534.1328916575519,0.20191562969117977,318.15860969596434
117.15268606099022,0.1596019121654988,315.83563910363404
277.23874109440345,0.29898622803242053,311.33335600873625
77.89533829859732,0.19727170972686411,279.5228591530387
348.4211995529248,0.22959324577698728,329.7383451243108
85.1838774019401,0.27426068968750156,304.5387957806677
396.9512910570827,0.15574324959887942,306.19497050854534
291.7168060141808,0.1817236677299018,289.34370512233096
562.0808637119383,0.21488947668663128,298.2728415191517
110.78326238402764,0.32176716837775543,265.8502686096207
363.8952060095449,0.22518733974117117,312.93709980511545
197.07047978888366,0.15064563117913662,293.98340886908227
180.58802095551073,0.25123543523106673,307.68069211776145
446.3555677676415,0.210291362328544,326.1061397874151
136.21660913053023,0.2051133895197782,276.19935031738913
76.36758741099695,0.19617024997573992,286.31125267566927
6.310372134035276,0.19442374091704462,289.04404194729665
358.0845815549259,0.15495030992836634,279.34291299696565
299.36731326825554,0.215032906026334,296.78924880189965
100.98620992127863,0.1692773847870028,325.3499761598789
-79.6126996433128,0.22282609891307004,298.1556586976698
265.63294858202426,0.20999282376481077,290.8631124994459
366.61259741706056,0.12493464666210352,296.36860456745666
636.1544260200567,0.17741673578356212,337.17888317570373
222.24910840462735,0.21886671286511283,320.1611514776759
113.76330641020255,0.18774990401774466,312.95846352588455
364.2061063632997,0.14652285367482754,298.62877603189094
222.70592194356541,0.24864589293650147,289.29934851242064
501.24751254282575,0.26352655082585197,300.4565889250738
125.61703230760287,0.19181737508341043,277.989992480169
433.39940584576794,0.1437152099644839,288.37578540712497
372.74102782192585,0.15760624138159593,272.7068820591531
-25.30035495937284,0.1773223026720383,312.8470475766193
432.23269455590105,0.26205303032585997,265.9320982070327
-86.48272962555188,0.2689356739415658,335.1361641219516
445.6552292270708,0.13690813106937577,283.0450532836022
165.96353194270503,0.20093696558843127,334.2358219943545
112.25557530889577,0.18388280391240008,318.6891296942598
358.96661614503097,0.22458945509698036,271.823412186845
285.35452747629176,0.2503826038273937,299.4908061026675
420.3104889676736,0.11880884500866908,302.75971404984466
337.1354918056505,0.1826289317339346,275.37383940225
749.8700724133638,0.20803304753861615,324.5736570090806
169.82592991912858,0.2769539178783731,320.0502978656616
453.42966511779383,0.1915650346359411,272.71613774268667
469.6430054576224,0.24228579484826682,298.9273994488866
-51.109332440510684,0.24133878543946116,307.67329149151226
232.03665311049105,0.16977645155037832,307.30860917154854
372.42402187327406,0.20442294000907735,300.9108071315305
64.36064943918453,0.16295907370687157,266.6565539630814
111.3122652507736,0.1965495640573796,348.56200167444047
333.4521827079284,0.22022263182987242,277.0920900697241
281.42318289514486,0.23423313681229901,320.89771670138936
166.49493009019545,0.2344629713865651,347.91864470346025
114.76549659055522,0.1456596069166281,310.7683583920086
197.5579268054582,0.3088516814925588,332.05565600715346
412.45019149431016,0.21275479767979702,325.2134394578203
545.8517006600231,0.24690030949957292,314.51372896006495
103.17665772647928,0.1802628392006932,320.3770445730086
323.6225483585094,0.19946726375948165,295.5480912425774
332.8846594838343,0.20604539200850833,308.78039708460176
144.48234664829792,0.22148773153410112,282.42728483579737
239.6291610702581,0.18902404190805566,303.63739437835306
301.57324572962517,0.13774423947366302,287.1596565134093
275.20587273239533,0.21686735532296078,311.0805706599142
190.35131389825884,0.1779646610040606,306.6911066452346
256.6058410340013,0.20237933686356024,303.5574319876192
293.19714740096697,0.08717436185265665,281.71336479554543
520.291574136104,0.17690368213532523,296.35609418899793
167.24328561482264,0.2141398754774107,324.6616303153931
168.01978459727152,0.15980089992461166,279.4220206507991
528.3487988281597,0.22334634309839116,308.3750551498923
464.52352255543235,0.05892576402246105,275.8521899379783
339.9908461536576,0.21073402815934708,312.8373348600121
325.42944656925573,0.19069799427613504,269.9904292627975
39.11739991939265,0.13657199998066977,292.60403768516545
248.73761370063792,0.17588693898403146,303.1216490107435
28.19270124960218,0.2209643447310817,317.81310517839194
589.6007573047634,0.1980263743764663,262.2451947326391
427.0196997432503,0.28057621574778563,310.0538675326439
86.53977946764707,0.21931084846194424,286.10037280810377
70.71280350137306,0.2741324311261554,280.00257018892955
23.371092492849016,0.15788546778273674,292.46442013165273
489.0737658351878,0.18337288070993807,313.9231731892832
255.58050775811967,0.23826300336258927,293.77293673195123
563.3017075959299,0.19422988981594413,322.05023986331344
194.85637672184637,0.12023246626048681,327.6561310431475
289.4056414136962,0.15309604937344282,289.67103428719724
604.5376942568155,0.18448453502467838,286.52514630431074
332.66753237199157,0.16348761235197845,314.72973440768004
213.64664457897044,0.22884822972214872,301.6467661505898
329.9121468961647,0.14774541681110107,302.21474740075485
433.0135947082505,0.1900220883403853,298.31611923937646
466.1760114549413,0.20698093165999967,302.47660127592167
174.7025576249229,0.1699740858213723,281.6353701710997
459.0957638815662,0.17500184396638407,315.87190474640386
137.97038625236496,0.21400468990248733,293.3896063502954
471.30005020739696,0.1282398959147693,254.42084520472332
-17.822249836973356,0.19007558183349915,322.9187957692414
254.13246105539872,0.24478683055695322,291.47482715577064
432.12121939240035,0.13842793997559638,292.9976477203593
175.41549214101872,0.1242259957804797,309.6625625963118
283.8047215550139,0.23199538984958812,295.33281866170006
471.55569187131897,0.2206756085626752,316.00416137225346
251.72327574643148,0.1573384568167812,295.2777224402278
727.1612235517703,0.19459645216805632,290.71433843820984
381.4255500329178,0.21578305273267243,317.3685096231496
41.84781734677301,0.18851273111963512,325.39799497758304
252.8749705414694,0.19623562371801725,304.06410684500673
372.7414437690442,0.19165739227448964,269.6372801207268
673.9302724815736,0.1766035298672121,309.8248988616993
423.92868081607304,0.14879824009967912,305.45834925325244
107.9010575484696,0.22390490249400222,273.0044050281853
239.5455835111433,0.24253507472370292,300.20714550377465
678.1775057697112,0.12263086367501791,327.61590193757576
326.3178449256327,0.2846332802837472,278.7892594594838
180.7861996290605,0.21650615003321338,291.40870207945886
377.41725699989354,0.21890568210116196,287.12598965162516
307.7320971304145,0.29077966497667385,312.7682656672118
441.9091146926648,0.1473366649224459,298.9421763152184
272.96699120719643,0.22906207982617818,293.0990836627198
389.61754400405516,0.21195462804131582,297.42631877040225
486.50639797557665,0.2071985595776962,320.9388172280834
120.70395002712914,0.1579318942575047,330.9866202255744
78.7561056624987,0.15608529192227377,320.4929034056793
352.5497989123191,0.21270624722728732,296.36374740272083
305.93984442451665,0.14674849787873864,306.7264110725199
526.9909140251855,0.23114469519528358,324.1016085958917
334.1119250423924,0.17366722283752517,275.73841691646993
418.6475849271162,0.18921005894380885,311.53356873836253
517.3853074138237,0.11826408224835551,296.7725069857536
129.60585507887916,0.17464293475901238,318.5540536497249
221.1691150314367,0.21444989552976518,304.55374490611234
726.4046308143436,0.21331089319912722,300.28711487290246
600.6034497629812,0.2116215455739036,322.5297792683973
-70.59485388469744,0.2654050351516268,276.36232470498885
301.28162681794,0.24342290277793188,281.41595857554
446.6202911533984,0.14131275241431349,315.8297525881455
85.38023956253608,0.23420209498125216,308.6549100739358
270.1048429218071,0.2372429237954214,299.38182225220703
282.5900359923483,0.14684692561681523,326.5859671797668
266.480894256773,0.18143607378649526,301.63018869240625
190.19219459262268,0.1934156572773885,312.988937350269
217.08362418106321,0.2114681357069121,294.12310706137237
344.5243484547137,0.21947763617124205,294.42284440164894
139.32793224692458,0.2030244460343427,340.37761868569385
546.9929728860889,0.20343511726795835,300.94064304336126
112.49032061589327,0.17330514627873145,325.0198253240361
52.45611825149638,0.18787516390453854,338.29487042335984
194.61327841425054,0.2655616390410373,271.7473198847155
439.7323550309565,0.22720239565327682,275.66824257385923
218.19000833257297,0.22430317635361316,310.82638906765305
417.5616950075719,0.1885736032595556,323.1517141178671
378.0174809995211,0.18824337169334404,318.7336606706423
861.8762851109353,0.1825685718912666,330.59022069731105
450.71208391967264,0.21344576815841712,298.7547260647009
-69.79189270927219,0.22900379037996887,316.2759050385713
503.8399359669819,0.20657867704552874,288.23506898303754
681.4371689257068,0.17493242895677602,272.5525332564198
192.46709593579277,0.20272176907375092,304.3232916631133
79.16094565778863,0.2453868727256953,335.746016938696
606.7308186615085,0.20976549629260466,282.28757057782457
177.85243242873895,0.2470942669478146,294.4278533845139
705.965482868915,0.1427877139306531,291.6157613154798
296.15003108125825,0.21601120876640179,287.60134209579564
132.3131789002985,0.2669947192027053,258.0738620883116
332.1293847279218,0.1404718744447669,286.1105943173426
503.4817796924036,0.24617376765901045,287.9801991253659
32.446299201195245,0.14816792553439606,277.6615121107207
99.16981976813918,0.20096976781316858,278.414590270894
443.907972711217,0.17420836472950338,322.0538599673139
551.9464580007809,0.29434332833343607,279.29617820898994
320.1545238525801,0.29150231143591443,308.464940475653
291.88564933864563,0.19015033594823688,326.6852803478992
481.1914640956719,0.22343937755943313,292.4346160824521
151.4773119395014,0.15163918198120777,288.99759369133534
536.0766248816071,0.18301083570205628,302.86760712401184
683.7223454220667,0.18167057035377834,293.9033960308772
264.5876705249376,0.20215056484141214,251.9069751907491
220.1127065267206,0.22516837586672675,289.4276004238067
-152.73675138359016,0.09948355141991455,291.91460153890284
353.5890827634703,0.15625173609663218,347.14391500991064
217.97740817085239,0.26104402459042314,293.3039363640608
153.55446397773088,0.19243908317087008,283.87732632414543
199.64763149938557,0.20665333687666612,305.49554337548705
163.2725693203036,0.19545439142830898,315.9253562081535
357.5290644188151,0.22372625105426705,285.65780459475405
350.8428876850027,0.169938426002267,279.9565976482283
547.9643043838017,0.26313725982181857,293.8940297682147
722.5748046096564,0.13210841677694687,265.9284871169008
202.85533693741445,0.21002738733750073,272.81243941160085
188.1870990565794,0.19704182196376752,289.8632262045389
332.09973930541145,0.22947758444231706,295.2239303705197
153.1352146031574,0.24462225583827668,279.09911318509324
310.5393688985753,0.26544903947316834,303.32956183146075
788.9275671453954,0.22987430180996124,283.29801524721466
90.83381084884127,0.2849005726769754,325.96495934031356
371.3385952762455,0.1649565951896864,351.69825477080497
282.47311226020423,0.20583770423293143,295.1360954121871
386.9155076546111,0.2235556342917729,286.7806242221814
-14.310399497384878,0.14792793675935856,305.2223309302536
325.47947814691867,0.22368148921975245,314.64023686977754
540.9135616710421,0.23985253404559892,327.7879199417834
212.40154446519875,0.13582398419679464,286.10287425893523
344.6110862765965,0.15470187394727844,305.65177569893086
381.61995289425,0.1955750056481493,305.95644549550667
578.2851320879956,0.19972937048424685,303.4761093447608
168.5284508211635,0.2602365729353303,296.40559892230823
184.81615488556395,0.1284947346237703,319.80686637880007
298.48409074957385,0.2029652937852981,297.73640681628274
197.2581748766545,0.23516614781999265,329.5197353447428
683.7210101067442,0.14810413653592794,277.7032105171638
394.1021489936486,0.20776556861188905,284.527782447775
143.53881309398878,0.18797035048410105,266.36514547535614
197.89194827784223,0.17067034479006923,304.07429937447176
489.61837916474633,0.1567979366045013,306.4098687646741
240.1640281653578,0.24499554839777055,301.38136870850445
483.94193677153294,0.2738206521881715,327.3634098092377
30.43764080930032,0.17440826965606454,300.8967834925807
197.95967259069343,0.2002817339089254,318.4671532546818
235.3229408156088,0.19269938448520288,274.98682400962986
568.5526229751379,0.16138289757497762,282.2061191771993
331.1181980122422,0.14201703500856377,301.7089050066764
36.77225896286342,0.11233686738820245,279.0197524047238
195.70949851460125,0.24038063104918167,293.69022085866675
305.05130017179135,0.19225385301205075,293.9974784578557
472.86071406225363,0.18884902572920514,310.78747119322963
361.22665614460135,0.17720890938018197,338.96722920324214
301.3016755112927,0.2126189853478275,288.60377256789496
318.9367559461687,0.13933126325937015,324.01851629003244
616.7724291656383,0.16408255775828395,300.9407983323994
319.63736212696944,0.1746856179819975,329.43744520421023
477.1096248333248,0.2593955680606393,318.9090699823796
348.2230211648711,0.15555535256225722,281.75984122157917
529.6629803460921,0.12213909027103233,294.44974451409536
466.1433443197988,0.20645253479274833,307.44824149391667
722.7690445525533,0.29179763264834413,294.5427297550258
339.7809573904358,0.25322446153526573,268.92383534585815
236.85710323526905,0.12202933268312749,304.14996252698865
228.48986600818716,0.2515656800755759,280.7555967656231
171.139480379144,0.232218601559118,301.69803318604284
71.29939701183338,0.20423788420642439,281.89188158637376
-18.542562406277057,0.16961287033262273,290.72698493948474
554.4930864571941,0.2843237527710858,304.00095258531996
287.7753274125812,0.20975304588005494,285.0646714285643
464.5869108345373,0.22998737375522285,301.0970053095061
498.5637108555452,0.20167373994284787,299.22459271580624
260.87136790242477,0.18596792274321788,338.2694419951946
207.39956285294147,0.2337540472728768,264.94763807525953
7.054826056083641,0.14739467446164733,263.3444254337798
432.4085920964973,0.14077196375588993,271.4195505928675
373.82016141888886,0.2077747431787169,293.6712513198334
276.5552114211538,0.2451906458385139,272.75587084589426
449.28051988609593,0.19232745427971903,281.9848075405974
286.8719517519516,0.15872713175446412,336.6841809766174
329.9263557145303,0.2936311266097404,298.30631496108384
800.8048879086024,0.1631829373360726,297.3773376650469
608.2715932323987,0.24243359538614292,280.90643369590686
355.1339588152995,0.24366742582288428,287.0105162525206
82.09387572824812,0.12060887584950956,319.38766309738736
519.7014322293812,0.21156294323047456,300.7969625844939
221.59667971969145,0.16954995850474433,313.0114035480493
394.5831511772842,0.24386839218532944,324.8174792745749
-2.0007327500704832,0.19421421348814089,313.573393875502
70.62169847199885,0.24209523341301498,294.8308312455394
239.50353448253247,0.22508037067368197,313.9180538584165
561.8616890624648,0.24301471589589482,275.4038762188931
716.1535694181762,0.16593524208276322,253.6685147810621
141.4321255165259,0.20264330308361794,328.24899363501316
320.88761842418467,0.2390852622692707,330.1629133047777
523.1187411564848,0.22634552409401976,322.3517382454484
433.62096196727146,0.2559834674128454,279.69669918409477
373.57945298984237,0.220386153240911,326.4554107482739
336.84826185794014,0.20631573689207652,281.36154713680975
86.91458640516916,0.16300994895220575,334.3737793081114
535.82904246089,0.13684458424562645,315.6682278859477
-37.18805359720659,0.18409117161863772,295.20514643443715
569.3295368872894,0.18725279829164654,313.93363392340416
242.87759466675053,0.17313530431914387,303.62782040344047
-68.6298693136427,0.2822883372058112,286.50970923623316
563.5768788011469,0.10615038235899292,254.4666680106429
-62.48478715530848,0.14979781501756584,320.5642810229974
535.2160747250381,0.24579311757161948,307.8293316022033
142.0751098029844,0.19165919935349846,324.3139862843222
-102.66944539303438,0.18586255555839062,299.4123845230001
527.163883258816,0.2275391153594915,278.1462076960966
450.00525987735307,0.18161427939873037,303.91429436790906
367.12989700027873,0.12670508170955258,281.1040057054271
167.45407674631005,0.17156166695135772,311.09588961317945
295.52345988557335,0.16958643020306058,313.2579397035146
453.6903028996616,0.24899134278846083,298.2940397071089
468.39699408071795,0.21948554713098323,304.42611200549425
-29.478727477896825,0.18502014182651025,306.38569994211474
77.27210655540827,0.24234494643049004,318.2510927991425
593.4551579919842,0.19015698154678407,289.3462954620629
218.71636974239055,0.16669171082156453,293.60977987728427
758.7235712656085,0.24198445890654008,311.5536683309727
747.5375867576897,0.1452824182165166,326.569040366546
322.34012939875964,0.1499569148095398,319.2711259929147
110.20044609681386,0.24045528196903204,300.13959036781733
88.12603087089727,0.19397940520841245,364.06779450947965
353.68980860975677,0.30787434841065797,297.1760683667435
354.4633800506931,0.218006540466614,299.67094182648106
311.14069183130636,0.15779449952623906,303.5056454240749
637.2986697543267,0.14471552864953705,308.10060861417367
361.7934972421855,0.314419609512393,309.36630151429625
412.6054715238378,0.17069612383731056,297.64121745390514
294.33844452849155,0.22652349154914872,265.263863828533
299.9665779598212,0.2189984421170295,301.1985306612025
277.13881408180487,0.2192063835148506,280.1687250288774
333.82734810687606,0.26165721232555367,282.30564627384786
159.00636381947461,0.21548578262851734,312.3832425300989
388.3261015221272,0.23188969102842166,290.05210676938106
391.2872180163339,0.10746103253900946,332.36299940158773
629.6329598652821,0.17483938523403922,289.7888094452013
316.4755248540115,0.10216586353106212,300.26788807542255
370.8660612811654,0.23371278753860947,308.6278503489818
320.3794113907419,0.192020006517833,269.97044633468215
-99.49361619130661,0.15300976545305622,303.5200531312055
600.2492077009153,0.21088004026047363,288.5231665429019
460.143642753771,0.2511374789036882,294.2274381646917
128.03945969512506,0.22393762120844873,320.84279681811927
115.16210566207067,0.1663156864768539,310.38588859808914
-47.835326214487566,0.1737705565485404,306.27719800100766
496.8572843948059,0.24557598906481087,351.9274174379054
348.26057758438515,0.19357164469984067,311.2676039662473
219.75256150719534,0.2357179642882205,289.957551243663
148.10806560122126,0.28530084486365465,324.8216941200036
201.3419723170116,0.14414194713553505,292.719677714304
719.2271052168282,0.24519101800716156,302.80444471979547
130.9204502669329,0.27563131530464025,309.27008954706633
633.9647070979781,0.15178476867418167,293.2874724117236
314.3622577359511,0.21399095616260752,289.3865280044274
-18.379596269047,0.18875235235673923,290.599456893804
375.3846249241495,0.10323664123895153,311.0085986176654
557.9726348339685,0.13256254729739225,339.0752300769465
126.7262950830243,0.21166629946958618,265.82704826014526
240.27899190237397,0.1360418650880894,277.46977395294755
293.51734442504386,0.22364319767852714,334.3418262987068
57.989889361219895,0.23543114767712464,294.92436448449354
-85.88713558276925,0.1984243958083182,300.1078587480539
349.93510413720685,0.24391364044498748,272.8937024753146
51.529915652193154,0.19972509798180219,288.61811199025055
189.45589061205249,0.16052913284139989,298.52497053724437
314.22205298956607,0.14028353955879141,315.7981323017053
488.75948420948134,0.2266444139922655,306.67916658657845
370.124813630375,0.21844284084278895,297.7193354346065
213.68841459838674,0.22358370295560717,315.3774444715198
115.87406668766477,0.09067241125097714,310.5185390968396
604.6571772389805,0.1400476644710935,321.38023778467834
590.6079860210979,0.18840109447288594,279.49191374978636
148.35416690691864,0.13329484063369537,301.0293169573704
322.17745091529474,0.16953825421868746,275.6400371635903
639.1057885188528,0.13285849200088806,318.44246679834106
237.2756800871764,0.15935569235601224,307.07565854281853
351.14555494916596,0.2728405597043273,303.3551945653578
322.91561935283084,0.15532399003864633,285.2829866852715
448.401189880812,0.17128492276352067,302.45206551361656
315.6065469696777,0.17472488513670362,318.7986633080818
275.48773370896475,0.23108636378307407,234.05817812534775
403.4975022782985,0.20049100129576156,325.0158213178969
347.1393082396612,0.21809745543531972,277.55564941259814
698.6894287132077,0.09955748663554216,275.33838126086965
192.51442483408562,0.2571379139575027,290.61550710419704
-130.83310142005382,0.27759195966277833,295.9684733261377
97.53922027935539,0.1687946675220754,324.56480131608436
361.9843675482148,0.23074663707471071,319.991698511363
291.9704730163716,0.19127035964703018,288.07009180941145
181.52125859135572,0.27087419597619666,308.55136899717724
262.0980399116121,0.14753731436768758,326.90132389302175
300.3029638936143,0.19201457126670596,309.30808440592057
403.3102957053777,0.23195820461545213,292.64311317567183
386.19361529297544,0.14980752188941704,308.6488116677393
538.2108864651414,0.2535995497051529,325.7013800997643
322.683753500089,0.17995899442446917,292.5375751546497
545.7993522947319,0.24176950652466384,300.9152212644723
284.31481601393006,0.24252105960801887,328.3668804700109
275.0418948087465,0.22619162093555245,311.34269447626224
568.8265077666842,0.30841426578968406,339.4631144075188
475.8080746545843,0.15691845581777628,280.7404179991252
257.80362381463567,0.20017746569733819,276.541210339392
426.93506226641085,0.180157893994145,301.09070392091337
471.3882851320658,0.2059061744773622,296.39860425392544
227.01885459836717,0.13821529806000657,263.6657710635797
128.85689395708465,0.22649808990468168,313.1343108155191
327.08794369646677,0.22433440072608674,246.80014037293142
333.7211033661108,0.18168695171728955,303.6438694868113
413.4295343084093,0.1803725311077833,289.88116540240526
362.52089090592915,0.14077407062177472,286.8377124162911
220.30536622035282,0.18258068068544345,276.9722673638388
437.5977239534108,0.2209224838539962,313.62235634878004
74.14912153431445,0.19007490350515088,282.06562382296653
745.509755719499,0.1924010408537592,304.52216849104474
132.76660119426796,0.2256908171553541,305.1501634999388
328.2901640734148,0.21310598649147733,306.69108994852246
554.9081832285999,0.2191809940875737,291.3557856484025
259.98038447316725,0.22353266938752403,274.1200288009082
107.23631325442491,0.20526337974225095,310.85549505814436
112.27333183526162,0.1212725256336629,325.8134203763794
304.3628074258622,0.17822243867684806,318.1649028375602
831.7787014173043,0.19669251487012598,282.7693406468181
48.92380628327891,0.25320032971987405,308.39081739851673
426.0937569376038,0.2016371434460505,275.3635867976151
-391.55096229588,0.15089418283837558,319.94520481453844
722.3992973934376,0.1918989215189036,314.6070989753395
167.15919521804997,0.18824025880724515,277.2980099012437
418.6167258589734,0.21700006568591995,252.28291373427484
172.893339399961,0.2138991959543169,278.90634721920213
554.8159497297261,0.17239363921180073,323.96496925668924
256.2187315988507,0.16161581569231812,286.51542691212484
505.72161239358996,0.24612020891425912,299.82340526013024
223.81625254301125,0.1865153015026427,292.81969305386104
373.8107487073327,0.21015318428995586,351.32405555146994
243.58060642090504,0.29173397576635485,292.59943256206077
507.5031939193995,0.22630479631420686,297.9308641488134
686.2332604740145,0.08554472733481665,291.5552472391206
229.1346589874607,0.29166604503171,297.23530488105143
522.6080669058364,0.1767102858719582,322.0537703783114
434.7408215202501,0.21497374801989064,294.21005114234356
201.70400012184064,0.1554964511442086,281.4248550580601
821.1476269365037,0.14566125859143908,287.63420879328726
212.03047728994568,0.14600761203017307,284.8850204041186
-6.695437904292987,0.23144916347694125,300.38634028304415
160.77447099346858,0.19842280653026698,294.9307444991392
276.7606456328389,0.1584850671526567,268.3265068906323
204.41618866847602,0.20838998707056508,299.3956676153898
366.4164430464526,0.14110480589408864,304.4038395778117
414.1790095629762,0.17633480994702405,293.16804093745645
-30.186355783703448,0.2762507983328224,326.80231953566255
190.09475058794033,0.2408530203011481,276.2521592815199
447.50240135299003,0.24304369404147297,330.04784560623114
319.83228861014237,0.22243677285579536,280.5604520008261
400.32966231782416,0.15663770829976642,324.0554496929672
267.49025771879633,0.23777971287396674,307.0169686611377
248.91452672612755,0.24238464451165392,299.0379531376115
260.1437170388028,0.15243625609720987,302.9925508234728
492.7553786992172,0.19111822375463658,311.25637171692085
596.4929174843207,0.13908359211577942,317.15896045327247
251.25721152190727,0.25984417987838354,317.2269246338998
576.8734121964117,0.3117794422865957,286.45190276951007
394.6412454019333,0.17815799291217374,292.5913146996012
67.28042666320994,0.1563910943898944,305.92461989831025
147.23193089355365,0.24384336797611078,318.68799747625496
193.2045767433189,0.25194633788070325,294.1363649051177
134.77339758776995,0.2871970004008312,318.864271998759
524.3516765404372,0.1939517799983864,333.559350708293
354.37997667127865,0.13318307564078982,279.2302862131221
356.0659721313175,0.21535563472060618,301.1321549625481
516.671371828455,0.10816967029159431,304.65736628600706
469.09551223182723,0.2121142466197931,301.1350427923454
188.1118488520013,0.21279529707544817,313.56070264591426
538.5443521814989,0.30556935563963084,281.92289472268516
271.3832866754881,0.2255809580224273,326.0073641239385
425.94857003336216,0.22458442509269444,323.6363341797045
367.41930207112694,0.1797091411848602,273.75185401103994
433.41475691330504,0.16266757776751511,315.5003731124522
397.4274558199543,0.2450508001840652,305.82981406138316
586.1805003025827,0.2037504062495201,251.95794065012421
428.8700484853357,0.1636925985771443,299.8273659751118
401.66839667015967,0.2225692810669755,287.92447811601863
574.0099420117576,0.2537701994740067,308.1362347780298
361.25733464870467,0.21200338634112653,300.2202100066603
494.8351755648435,0.2150373638133752,262.9209502679173
418.4844104497514,0.1261798931690648,328.8294440278231
606.3992632188892,0.1472033899525702,285.96067937612776
-196.61536176708393,0.2549117822738019,289.39190916250425
193.738133851479,0.21168142437016965,287.0895517790373
153.33443777072046,0.23536768707089073,316.8275318033886
71.24545436896668,0.2353588110312527,313.3784673811253
431.8361416648648,0.3031781020919987,320.1765488884248
457.7332684573346,0.223208073057807,266.90562400851974
248.2634445724225,0.1828278172947148,300.2144768432607
509.87524479185436,0.0997361526539301,301.22432825876564
173.76019467462046,0.27008513291253233,298.24579740282934
513.3412655547977,0.16265252645209083,306.53994614404354
351.0492369185268,0.1580455656851958,326.486995794111
246.9492074293308,0.1327198996581445,295.08370455782415
324.8590235532477,0.20029238372906485,297.994500135344
526.8919128068978,0.1465551121554193,293.25147291734464
495.92556412661133,0.19203157255509423,331.84604445085245
218.74993025628243,0.25437380150927225,282.6961349517516
131.07091715436673,0.173881432329409,309.9998716492153
409.5560330142722,0.22506921018006706,292.1163569065065
247.41596968713225,0.24016619629953456,319.61654382844034
105.59711822674393,0.1621193080225071,254.33162348871528
-23.675001219243995,0.16756580965980142,295.16244158886246
139.9412785931562,0.27068537852434965,276.6952597464853
125.97038980390545,0.10759250529074735,297.0577700146365
99.14857280538817,0.24894742722744218,305.06327576217876
146.50017717771493,0.21134682030504695,326.35448963781687
-38.52650895637339,0.13240953333639358,324.8852272753069
436.85192008487564,0.22528822703566634,325.08023634089955
252.74042824741701,0.11640863452480238,295.5656167949012
465.3195178303089,0.15759190652805746,282.63747648720056
193.31541189520493,0.16428951663199884,320.33259561529
277.73811527184074,0.2577774897532492,300.9133478045975
570.2295621546116,0.23874285770996972,321.36943389467893
337.6727308119461,0.16561839737136158,300.0633976338817
354.9333888557481,0.211150184373267,297.8811935293899
581.8512520723673,0.1913239366299022,293.53482128927254
303.906863315392,0.16341342675184709,303.8736717044257
115.4100611562925,0.2566097560684966,300.12234335467406
452.8273623344901,0.13992051899380098,296.3781157445964
398.64090172972976,0.20340656258264528,329.66076495803213
435.4665225903183,0.2172057745987589,278.78017528949425
337.1491868544387,0.20460015438291962,312.69585100840493
464.1329942282699,0.13100408645870965,307.6157435410284
-124.23862672007192,0.2512869455514165,290.7305209867871
565.6005418759489,0.20526389246439902,335.05582221982246
408.77955730191604,0.15929118285912175,316.63137877345576
229.0772754851883,0.1993250512100646,310.5915330135108
375.9977830350664,0.21927023860921807,294.9027447592322
55.334568640053305,0.20233462368869354,308.13331096317074
402.4277606212043,0.03938732226208225,311.4103077327577
163.1324530193651,0.16953421369421276,309.95510363424023
225.60376749376246,0.22045673615060954,265.60226370258647
118.69983563229911,0.28081310824080324,317.7566488319405
359.6311130879791,0.10432798446290698,291.0881828437848
53.76965282885365,0.20094459005902393,256.4363780951455
529.7013097947638,0.2422791754211548,295.4435168791772
244.03746324998153,0.1792817281322466,302.68482072582333
570.0430386423768,0.10014497980774605,302.08393845810264
240.30018005486556,0.2686100969199754,307.4122562913927
381.29440309241795,0.22802381790382933,293.24078326466844
518.7119661991104,0.2103956697597288,314.6648974332172
474.3812048670757,0.2863601423238562,314.25918437847537
132.36288295757967,0.2655433319125547,278.06008206657395
377.77680486676434,0.165829688950668,298.1342507371102
203.67815778376217,0.19879514341346513,291.10639546597605
-123.02947231711522,0.08293871739862205,300.9337691713164
237.0906776734681,0.2853336290258244,290.0404866338843
89.0737275270474,0.16540314317145616,284.31101566149545
530.0093477588567,0.2728422192708314,292.1928955804
257.95390410031814,0.19283610954492575,305.9240285304739
-35.29774638039618,0.221373051976684,307.3954870977303
94.86395469877414,0.1329004696984213,289.8024634619261
816.1756851167943,0.19549865104313222,286.29903817835185
107.69187692972932,0.16041134026643458,277.9112385031224
371.26735167488005,0.24443292003947167,266.86029242890817
-7.281590660904385,0.1049315285604369,318.33242817383035
-246.431173370534,0.21496645626401503,291.58023144576043
220.97520315501052,0.2273839042925559,303.2312171044956
163.44834619581786,0.16000820825471626,292.3860456199333
405.2834913561546,0.19482119757093216,318.91787028653147
82.7572975672322,0.16281352862208529,298.80559872455393
255.93918694149656,0.18402839305955604,304.2564271786461
476.2169150288459,0.24798227768851297,314.0011404910591
324.8183124112868,0.23722393041623105,317.931551099047
-9.290432862291937,0.22673253405937238,296.90154691034775
242.57598188117595,0.19668696923811593,301.79446314718683
405.4649412318376,0.13874566782035097,303.25103752947126
298.35462991519404,0.20731679177874607,280.92496146079765
299.4576458415355,0.15612322216250307,273.5909191114426
326.8291335864305,0.15234771731287639,299.6216945783576
114.67299577798647,0.19952293694538414,288.40614714774404
153.4341781315767,0.23532835576675093,303.1110972251331
390.9597852367184,0.19163001897828288,287.63879088836455
618.0308292788245,0.1563485259809309,271.4200271389411
375.55881673052335,0.24271995816573097,311.2011541863407
502.76954357961273,0.2117999294464486,302.8575135238017
569.7914061719981,0.2471096299509144,292.30234606722956
184.41249202799986,0.2145834698605539,295.8446767917894
380.2783122260279,0.11753727352147558,275.5737830900711
-21.383146458167857,0.28067395746932444,287.6110486522494
343.5953660677465,0.14604808799885977,268.0020602142961
480.1515113957793,0.16934077280036783,270.26538577811993
325.39592413836294,0.16540338522470677,255.22560723242526
58.17588428759967,0.10954913156574751,290.839495638318
223.7097962278708,0.2159247561907044,293.0625030863999
187.8205818974424,0.32314820485979123,305.179366884839
118.77380643654186,0.2161031123146226,301.22718490718336
429.05586115707126,0.26911784968726604,340.18836093580506
313.17280332254415,0.17243703897817497,258.8484274346
317.0924825548397,0.26988228089803407,283.34617748475773
337.97349298922325,0.25793787943699603,298.99776251410805
383.4926561811337,0.1859342833980101,298.5813876773722
141.12798333786145,0.16211775580775797,295.0744000353724
237.34483624395654,0.12426377591334208,282.044076124437
84.36004987553568,0.25014077684808356,285.11366721726426
541.2636210762469,0.23403722911084598,321.7145918717828
176.07501403529335,0.22401697315069985,325.7348510787386
462.8438432697112,0.17945672129156034,308.11730826691985
464.1770109812265,0.26301575634822494,304.3576184203648
191.80098046403648,0.20732495826223035,294.34809467979267
579.8903392686194,0.16285999449753097,302.5423127606446
487.3735600671124,0.1341135206248959,317.5657575050271
313.2170795483166,0.21525043598667762,295.1465005760817
336.3066349224881,0.22430519215480316,306.69522401089273
288.5614498952775,0.16833293292415547,337.71650725444204
69.0860514637422,0.2424822923144735,307.476264170231
19.527720593286404,0.1921698806766097,279.38898856758294
293.6353951539028,0.13752209513500085,326.8299922581578
89.58792801836677,0.21273122100077885,305.54765840474505
-18.27690658437558,0.2513606068618817,293.70363575883283
544.1638830201013,0.15367328521034623,313.2244852898136
573.9158092427804,0.14629452787081076,297.4635331934758
331.71445233161194,0.17130106439549148,298.6674877199363
290.36864822740745,0.17700948120363078,292.28452722426846
534.1255432758145,0.24324583115568252,284.12001143634734
242.83258048370934,0.17538570315799556,318.2412111685442
