36.83036507468297,-71.07680161466038,4.606222557007692
-80.01429864937661,-1.118282388958621,-42.88827027048334
65.3129664549645,-46.276993717641794,8.481223330929655
76.68482623121797,-23.019155683795393,4.021646764629253
78.80869546659805,13.7923214914955,8.333734243419068
-10.519589384369494,79.24348206297003,-10.560955401798136
-14.860422683649233,78.66005720487853,-14.554853116086775
-80.02598255821901,-1.658684966208784,-11.437970670096309
78.39975899486976,15.925438725339722,1.3012958711923208
79.42924194588959,-9.1004709101202,-28.983366833306548
-63.82671087074946,48.290192696955145,40.04354124903205
-5.674372722740971,-79.7086758827015,-1.7781924332445633
39.00754430262782,69.85567668195718,19.58426189517233
-59.83877651351302,-53.11288446626849,16.686265907305792
-42.669402211822884,67.59065630884291,-10.428713576840602
66.98619776530822,-43.670172345881554,27.67007226561871
62.28495729254318,-50.158292865775735,13.346816454977157
-7.521998557149404,79.64933684088703,0.767112926942901
-18.9655255101865,77.6966221952644,-30.944703565315123
45.02386686308558,66.11278636679393,-36.23560815745267
-75.39930440192781,26.58637942107658,-21.853530632587287
-76.55050078063815,-23.436562881441876,1.129766775785691
78.00309456088802,17.556439590832294,-18.292816968794597
29.10556416266997,-74.57785149995445,-23.72313255386066
-75.48261174595099,-26.673374390930494,42.55839247896614
-79.66952649886863,7.098709185255197,-22.985795746253427
53.83312430012324,-59.290943578177156,17.218544560863258
-6.004306298623915,-79.75860495806833,-14.317715376051165
46.85299594887242,64.73402683221505,-0.8685605310862531
-72.80953019941462,-33.33191204411937,6.9360458885622736
-26.711376496759087,75.38997389947488,-29.860795047705246
-52.90970691417513,-59.989187702800734,-9.890407613612933
-69.36266873125659,39.86369101780185,-17.05475809438802
61.760365643868525,50.66475581132759,7.432005351064804
-62.09278301055986,50.50971119780633,1.9182567510666573
20.01222482546768,-77.44124877869292,29.852009582758477
27.665237683327433,75.09104830861246,-9.466089691587293
-28.382391113488765,74.74320601926324,7.064001658885836
72.81729637000598,-33.177333908636825,-9.105775637788973
-19.19049596224005,-77.70707666723001,4.8085749985880755
29.74608706114008,-74.35383058728428,6.897149549368255
-2.508204660424605,-79.980720486822,24.74275897249717
-78.62010988528266,14.69711299263024,-9.821705352868415
72.98073159837243,32.89353230049211,12.7905117079492
-75.54949934059593,26.373160269418012,12.529601790587977
77.34912004151583,20.39202914396634,46.796560777731045
-64.40985917880155,-47.49511256360274,-31.042520820862215
19.90147162406677,-77.38320269337358,7.526103552856003
-4.4039474186488725,79.81278997857723,-21.444442064010193
-55.62295544849489,-57.42351980124243,-5.336692936938364
-25.934144019309997,-75.67774095485564,-16.928251419855737
-25.707172312875986,-75.76573568085412,-11.108857627078873
-79.14666871810235,-11.183027934841121,-40.88885444846064
-72.41413907462989,-33.979779362558006,-24.677220610299226
79.42114970119832,-8.408137199201297,14.617073686705366
-52.18503238049146,60.543344670414896,12.112950329018567
45.72666956486264,65.67982646848192,0.9706410368303904
-56.95531520231479,-56.242150879297455,-18.062702222994538
61.689844190724955,50.91868343438105,-1.1869646864451802
70.58766901804823,-37.69768225077138,1.1441609684870928
66.44811848587479,-44.64451914330763,-14.31145594835156
9.687747450749727,79.41634949203305,6.729160210971147
-12.370411009952043,-79.02150829828366,37.42062113291753
-54.5903749181051,58.56630585222836,4.604761687676369
23.07223230747714,-76.62230897076608,-13.878982234608896
1.5339253571607883,-80.01064780603592,-5.067649707961874
55.662447854949015,57.47063410696306,-16.70817353313075
68.71248803502748,40.80483982663545,-15.477609682212607
-77.15489714595525,-21.20682036571227,-19.528768071620345
-68.31993284371896,-41.64784967078717,9.449377405217817
66.55072333731144,-44.364769107953215,-10.17714965771913
48.618120209527355,-63.52097910321572,-8.445989268285658
-36.805475932704006,-70.99015834842376,22.26078230920331
-71.87292318560907,35.120672032282066,1.8617863171238906
-74.10646526119679,30.16345036123719,-13.3419027484508
78.75888124843821,14.23900645569065,-0.29780689738110716
-75.56367914557555,-26.115485275882484,-43.87590622250742
-47.349116190375796,-64.3969978734855,-12.665928846030601
-56.767985049181625,-56.38592976154524,-11.721057546068415
28.42897997770459,74.82044537158174,17.057307814560815
79.12907698834252,11.591975375610204,-0.3951107199712721
-63.15861728393958,-49.120047536842144,-16.76673226474248
-68.41694213885678,-41.42579591287061,4.210846678020191
77.76207750147177,18.744884801830178,-0.3080938911351907
-69.46932928925047,39.64440881591274,17.55392359965191
-79.93939885242656,-4.347494882819871,-2.254724046835709
-29.89694294071461,74.19514718660879,18.12043557179433
74.46334441716009,-29.32869444797398,51.915463637639945
65.76992001097085,-45.38999574633163,24.66965885096751
76.99008598818344,-21.75720641870218,-12.430675714305334
59.522452805778855,-53.57107365747105,-40.556106649890424
22.420868836318167,-76.75114686235976,12.509602147621736
16.18546025925394,-78.35714922940953,0.9052919805399935
65.07982631187926,-46.60422232492401,-16.387498171590426
-58.77737406191907,-54.30580213142255,-12.859924420009596
-37.204579227338456,70.89506211803536,-25.00820666650563
19.238989269877347,-77.67976637034525,-12.35459215433747
76.96895315742553,-22.045928882176362,-18.631438468005857
-21.980506688081107,76.92458839899093,-3.4893905973121693
-10.143308186401933,-79.35898142332043,5.528395227020049
14.02770707376424,78.75771978052573,5.687594253673257
-35.09222371633972,71.96695688115534,-16.334682199343366
60.771370511904834,-52.099787405874146,4.550937856281607
-80.0581147269204,-0.12960413941310628,30.782310921133245
-79.05482851651956,12.865686993426504,-15.189484543240848
40.58324341375949,69.01529082717339,-38.10049287675835
26.309250719963,-75.63382212944882,40.72772363199863
78.63313656963331,-15.351281590580848,22.25236421482154
76.5558579850733,23.21374641361047,11.979489000047959
74.56860273597279,-28.971662900114662,-11.264245247597586
-27.836803442011373,-75.0127941743019,-23.28062872981794
-18.879036697800032,77.67494780488458,-13.424853319850982
64.90975220174322,46.75712552683744,11.578771230134784
-77.72591246814675,18.727958991640314,-31.67323406194886
-13.494875268821213,78.86524066441649,6.505666688545898
-54.39442086530686,-58.58813387237455,29.752927242609573
-77.00893536970464,-21.593953860018868,-22.827477510282055
30.036202588777826,-74.20137474714116,28.5913256762216
-71.47706428721591,35.97908172192391,32.77107130344414
78.9549775842387,-12.80085249681798,-1.3363451494541299
-77.83461448685793,-18.4199346259878,-18.762388128672875
-2.060008743786746,79.9449726683677,-6.817187587690842
-79.90497399551813,3.622303279244714,-25.6204340187012
75.38991019153315,-26.94515871115862,8.549247944091698
-12.063827043398136,79.15206888212906,-21.515675333710547
-71.93410763437764,-35.06442582563976,-14.864342040010602
-79.39564662491644,9.484148220375614,-24.062147374456142
71.10600700008898,-36.88320794298652,10.210043380005626
-28.59757814422951,-74.67840882180043,-9.744020481120941
14.911873097343962,78.61963915010752,-4.083437170222352
-4.451363612356322,79.97777414942884,-22.371991551026383
-20.00318953642292,77.46126466113311,12.926836863854128
-75.14364888389456,-27.61645350337614,11.419585613849879
68.39687247211135,41.62721105967282,2.5412769926529055
-57.70515272590407,-55.311165607503774,14.224689902414658
65.51406913400358,-45.894779835632846,-5.624312689249792
79.36684386383811,10.047568250462012,-19.687347189697984
-76.42926028481506,23.5249338160966,11.437980906081888
69.36111139967753,39.97243668460387,-8.383149064328927
55.53988054569228,57.60744660480528,24.981811593771827
-21.534308150386487,-77.11952536693934,9.989666954634783
77.06085188572432,-21.32502667610154,-11.92379538655061
79.68584718067893,-7.433127246177037,-3.550050383976968
48.136194623422824,63.904646705638385,-23.014586221611204
2.682671357101572,-79.83498522634204,0.1943549981105051
13.949337014351771,-78.81301222747113,-12.511101324873986
79.62733244686277,7.898688263291222,25.754926358430154
70.87070187856948,-37.12878806332635,-23.271616432115994
26.897028626875965,-75.26367619925233,-41.39931013895445
-33.80764867741168,-72.42063429368366,-20.064078917243556
-78.85534400081976,13.22475174678787,-11.041114245521577
-49.021195343851886,-63.306682238158345,-8.79782794001721
5.857819413277061,-79.81511905709135,5.281798417555311
66.83878850678026,43.92404701829213,3.0941770243833355
79.36938390700695,-9.886004922305599,-14.216522057523381
68.77385962637543,40.74208213447192,-12.848452241383487
-33.58444588805116,72.57697945189723,21.97308146550881
-62.399887698974354,-50.078254075620904,-4.042775187151279
65.1969762242043,-46.335092606470425,44.808810020546225
-19.265147552316296,-77.70742475408409,-33.49086198655393
-28.772506956501978,74.6303688305778,-2.0872738112774387
29.72429697698599,74.31952457426516,-16.630180664963508
-50.78964532828482,-61.918110215606646,31.057000054134335
54.44102679995216,-58.7556529327066,30.1587001889315
-40.701391161380016,-68.81735955888229,33.12328310124649
-38.171893993378404,-70.30907036344064,-29.899657866706754
-62.73320401557705,-49.50422249620535,10.115139696080051
42.08167111338751,-68.03233432804025,24.19693058711391
79.34753801284478,9.935978145062489,-26.15881169484874
-0.7945545373079907,-80.07356652265572,18.806215001457904
18.016828227904227,78.02391172258281,-48.60505154436854
43.35444426589655,-67.23639683815523,21.094190369908517
36.72069657255627,71.17254977980963,-45.03437870710796
54.66070349612272,58.36549225001075,33.04588430673037
-50.416993088134376,-62.165947636489044,-3.350385407381611
67.53948051579685,-42.73963887244698,-4.227206642780202
-0.3963214648179907,-79.98895589910073,-3.1055256031146032
72.95245411239304,32.72141783626121,9.143505406016386
32.27748903504396,73.24948162557841,-6.154915950232641
-8.030090130645574,79.60058895281762,-1.1563282066608955
72.18912202121709,34.53532934201445,16.821779899593956
-77.833220719843,-18.510530394923297,8.977110027385669
5.100863210523824,79.92952817478353,8.233714638676677
2.1030811535793372,79.90372750950924,-18.554765569294638
26.607132022953877,75.43726434930092,-2.8140027127589833
-78.36104729108386,16.07861878821602,10.874733619425358
31.137077877060186,73.68756190944394,-3.882893503020457
74.79938011677874,28.36511651747674,-3.221473861803795
-29.82222317020456,-74.23086454242318,-7.214568449159051
-79.91793464716365,2.7023873173251443,-17.035390190505503
-39.33598789659246,-69.56836558488166,6.436523764010288
76.56303769123369,23.140794883389788,19.28710464547483
75.04908629192741,27.748528556022027,27.116852396377865
74.0713393130942,-30.20745639974559,-26.384109315412815
58.28541758116764,54.71871484090027,24.854760949205144
79.18732078584318,11.697531313073922,15.001496527954615
-62.637052921259475,49.769474164647114,5.582627628098132
75.25975506347758,27.165445121608055,-6.473975792408941
-26.832219859241523,75.31272651775167,-22.46998867019025
-25.22052606887651,75.85231526668706,16.56460350141216
-78.44313590376018,-15.91027036371133,-26.7719797722402
69.09853929827807,40.321214067154465,17.377182401609765
79.98920671143185,-0.15376935621862622,0.37952159054850276
54.246487549741516,-58.70910859984979,2.341890563485525
-1.3281858376863689,-80.04721610510559,5.312099001713479
13.811751142865,78.78611215018132,-25.360356142242672
-6.786454423378228,79.72588140613557,2.008446713774423
-11.904836213586458,-79.07708952304256,4.962220727034887
31.14761875556568,73.67564590967993,-28.49687489075791
23.216891010127988,76.54225054996301,51.61825341763959
-59.464132600620346,53.47699550804254,-0.6009116337727238
-48.11945028214861,-63.8889434517807,-8.543486788733908
-78.76060920852709,13.946707833013296,-15.801477650474144
68.3461742615797,41.51412514020889,-46.28120219190799
-9.989537050860157,79.41813017543927,1.6452909992755769
22.401447707839523,-76.70927198667316,-0.8697529386840035
76.7097684921392,22.28020436173695,-69.68323586326501
-79.87645540000423,-4.328007905972804,-9.777169564755686
72.98223828341479,-32.57460122546034,-10.9481305120342
61.28012125730348,-51.452737556090625,54.33711595163605
-76.75260946792724,22.2626622984026,12.323477156647868
-15.518197281022314,-78.46108810317862,12.501946901160856
-53.58842922994295,59.39932756870125,-19.8241551177348
48.70330761695045,-63.36529699939438,-0.10956487944550779
50.05897504169376,62.39575691901363,55.631026938479316
-76.38544476742184,-23.910177037373586,-11.686242486349208
35.69133240603315,71.69380834602761,-38.15844251886907
-59.34120731412881,-53.57859787412409,-53.238561954005014
-79.84263629401731,5.754659810355089,-10.190675851832765
-79.52889783538346,-8.143978939851909,15.8573686816871
-50.9667856770311,-61.66197313506733,-1.951274617736963
54.365547789930744,-58.55842592191546,-7.868403285514192
22.248375459227997,76.7947737502651,9.1990395913038
-12.129191034881268,79.06868488260127,7.738716889034033
-45.916092450083205,-65.54917812783063,-33.59120811247665
-79.81343228618381,5.097998064225218,16.187307489559256
3.4848676392536873,79.92737343167427,12.63710154907802
78.58273009835094,15.27132299496246,2.8871953548851153
-27.875696872200443,-74.97715928952739,11.805248028849595
77.27894646860273,-20.425334703721667,-17.34132249876351
-77.18187827070714,21.137682982853196,10.032687164756238
-11.114509681390569,79.28960559750521,-1.0800571231513203
-7.428042497192184,79.70652606648267,19.48691738989774
-66.0854673389216,-45.06326366518752,-20.852512840221742
-74.24412181896321,-29.72681207705419,-9.68114003246848
79.86473106322745,-5.40622454041135,28.776564339077147
55.869639698830575,-57.25596278995438,1.0674731397652586
-73.79783147249962,30.712074057909074,-5.160183553631773
-74.10502481268215,-30.176354901920703,-8.550834074677965
49.2867016605218,-62.861198045292234,-9.782472434789435
71.83679882899257,35.239542249805496,-21.28072219336735
56.45890325882148,-56.626265069764614,-4.863532642041199
76.13179434507174,24.239476581707166,12.464625887428173
-40.55661963384228,-69.0093741190848,1.983705378434817
62.233690699007106,50.301517788410194,-22.14586144282422
-74.68132673472812,28.84727378135281,6.085122618267901
43.417802224839676,-67.22999332517512,-14.821915461677612
11.90663854896437,-79.16169329361652,17.536603006219423
-65.1904803364243,46.25089068760993,-1.2470726187876346
-80.05524310463204,0.9183580448196444,-7.470472937208666
78.84272845807416,-14.234532606258862,-25.84674150903225
-31.20516982787716,-73.68301593182863,1.424777526678145
72.4859056813032,34.03620628682681,33.65806313665383
-66.07410301994557,-44.98972107547942,9.965105119255268
-42.807242654321925,67.64573013245341,3.136397362060329
62.15297264765396,-50.379727886100966,-0.743830137214123
-18.288939054460915,-77.88516938729306,-14.780396094616378
-6.017146005290986,-79.8096809538223,-2.1882784918673597
51.411438604157624,61.178052225592126,2.241483490976072
-32.99146940011478,-72.91525028192504,3.052998804589847
53.29471073840031,-59.563933834311946,-9.623977409988257
51.99932729395317,-60.80146807442554,0.8329018011201883
-68.21217398427426,41.83653021626899,6.450065092515817
32.123565939413105,-73.37463384543457,-22.715534692494316
-22.985018384130615,76.71380103528382,8.862373298867357
-71.59755320307673,-35.80092344746094,-5.263465553218101
57.970708681423936,-55.11803616554356,13.82534356293923
32.958849641394835,-72.92614199035242,-10.901493785149974
-29.564113894297858,74.38396750753719,-20.44872891772986
-22.335210741581076,76.76373582457289,10.080275955077184
70.62137422438458,-37.43718351983813,-6.81882427153281
75.49828219318401,26.1999430262956,4.4665648172482655
23.113166689672855,76.66783621442333,-20.473802625875464
-65.54015518741511,45.82372628578615,-20.95041478961772
-28.604750555411517,-74.59376991437031,5.926535074095101
30.15182475405032,74.13407293714998,-2.0416245208533415
70.50311324420832,37.853105977447164,-24.28520721865706
-76.02315451061588,24.766746089273692,-5.664840011698579
65.95151191124894,-45.3040186008445,-21.46048296966648
-72.56715750437034,-33.48447550947196,7.12344316530276
-62.14643785151737,50.49498559024905,-20.281349474325925
-73.01365450902944,32.948586859002184,-43.812661664407514
-15.953572124843644,-78.44952346341202,-30.136633575480797
-8.652193275837794,79.56337006493465,20.55746545409816
45.98873790481552,65.42198838562864,-42.26453557855608
-21.01808800723938,-77.1874439998697,-15.574945302578938
74.54704235398603,29.009680383912062,21.34221764355839
47.93544119113894,64.08669925049657,21.96825674188464
-6.489857708263108,-79.75324648722282,-9.777311900251433
75.55822681643882,26.09003340911338,-5.8514540136186035
37.998622755638266,-70.36947120555129,30.74926848620226
-71.43684819013617,35.97856531070953,8.522901060654643
-46.900856906296525,64.82031603982189,-14.118734832948283
-57.86650119286504,55.25327820441948,5.762526114574474
-29.06042854165261,74.55732686899374,6.683473538904863
76.02111796760269,24.73539827227577,-8.157941538008005
78.96419627035372,13.040531727114752,-10.320540768057116
-57.080395078232485,-56.042212350254275,-28.13143023457878
79.6141893785116,7.610028738304436,10.517744886417722
22.350512671671936,-76.79958792119876,33.348360275364904
-69.88415313370537,39.07755028248239,-37.98520006095134
54.517075072817434,58.52252290850392,20.42045401920946
-52.223572090688755,60.6495832966471,-32.004393937430414
69.52997437172162,39.43814383519594,-20.965942083523082
17.318222353971716,78.14790615971818,12.032625853449916
-10.125523815336312,79.36551973194202,13.172218253317453
79.72942967430339,-7.203827288266278,0.7619932111961697
-5.711362746453354,-79.76566419768564,7.37375710447557
79.89749062225935,4.297323913813568,-44.45836178575603
-78.11072097101118,-17.317558680034544,-24.972619632350963
-62.807127941903666,-49.42108981442286,17.83491868982694
4.632626782992932,79.8912322578091,29.832845273951335
-67.91393375208175,42.219550412845685,25.27722175323401
-72.35525351089609,-34.027368133948066,-20.21463586860431
-65.53254320065948,45.90420917545433,-14.215135932538585
71.1241614852389,36.60481476925987,-2.9947892192794336
-62.018323962969546,-50.53850510777137,0.5560483794126668
65.36903748819734,-46.04847993111274,-8.869706378744034
-61.89770277120179,50.50183073522418,-13.733627723140724
-2.989244076118046,79.90500488036132,-3.428154629598708
41.92032513213491,-68.13075220204497,-33.87882974070057
-21.21999525745558,77.147956403922,18.438362490005687
49.109313302567536,63.18315974616161,53.983912998839685
-23.465471239856836,-76.45421385724931,-6.572381195099858
11.621167961472583,79.10365734543663,-32.13178585415482
78.67810527086567,-14.588446455086928,-19.00890107766816
11.37355608250121,-79.21969820015791,14.774025244627271
26.423796812383014,75.50047423328901,-11.329518293520016
79.974337131528,3.206318392288896,-33.72468455155621
30.200701572124654,74.10810342321432,-20.771835442935064
-72.70732705841749,33.57355456966118,15.026207352457224
-70.14605669732293,-38.59332215779326,5.3166711007947125
77.17026762143594,-21.209341676794015,-36.674567539300085
-63.988141413638274,47.97366508063554,-17.752291797169157
-54.8012751086803,-58.31979669718822,10.769957542041414
52.15941382717738,-60.76520358180494,16.852550021189742
-26.354063982228933,-75.42631654745566,-11.051423767163637
28.24680614406258,74.80416130038927,-27.038524239490314
77.77736933439353,-18.975372001103537,18.90141228974946
-62.336054704539976,50.18704691057502,13.185713334143404
-36.68314254602714,71.09141296118138,8.507814299531768
-79.05204709566485,12.087758536225168,10.259376707636605
-79.82310699311226,-4.988359371806627,21.292818585620672
-22.63706918256599,76.78241586411735,-8.03356896206125
54.64479599805836,-58.341354906382236,8.515220023955992
-75.89592213186698,25.27521915167746,-0.6155950826440347
-28.06508818702948,-74.87442327607718,14.461577328446722
-31.113150668027235,73.7286520196048,-13.200490725583407
1.7029331827902239,-79.9223700476295,1.817326914555285
66.49033127823753,-44.53328969101517,36.693744146758
35.790854557123495,-71.58809743971943,-2.2956085513823874
21.694059587472236,-77.07953960958271,15.877177982296653
-38.942338239550985,-69.90359210725141,-17.5429811351255
65.88844666519066,-45.40987124488144,-22.215201862592306
-25.46514980079348,75.9084476385325,4.075875919831831
-74.19150538946865,-30.029157377977093,-19.197825101632098
-76.8913313814219,21.87619820638777,3.2783695558352353
-79.9716957281624,-1.0083208737932903,5.977116314309941
-77.66265122298013,-19.208349393848252,7.3685012029916255
78.2042324361447,-17.206141696668844,-50.0844715896305
-71.11267219876814,36.690192468715935,-3.6929969494747494
-33.821337565058776,72.48031507412922,-3.2298080211409403
-76.11648156798772,-24.619647013841373,-10.069279377306884
-76.1857601492813,24.387216123867,-47.45434720960737
79.82242455398942,-5.135223149898738,38.461193005211086
-47.75493175175501,64.12196820939499,-8.43378690166307
-61.79536895442967,50.75691697996799,31.591714811734025
79.71055853991128,6.4226922793501835,-22.954867261465495
-77.56768244127062,19.58688542009713,22.81978391802385
78.04777068902082,-17.314854215598654,-9.577823811356664
-43.48126754027377,67.09553655531941,4.942501396929402
-77.95615155109107,-18.055865369651396,-9.260495860419294
-36.025560391114325,71.46916584448424,21.308177428432046
-51.12639493274974,-61.52320226892941,-3.79670511076539
6.815881731050317,-79.70858734946673,-20.616440113697724
-35.214711998331886,71.80156118673703,-42.01167080710639
-68.42360638063633,-41.63525910135073,25.20220477913769
-78.34672296021635,-15.651578160139568,-25.117347813400794
52.04651994278314,60.73483434934457,2.22693193632905
-54.79322011183952,-58.29294505852533,-9.303285580664395
79.75969641933179,6.575676643959917,34.43416804284229
6.905888615595961,-79.6679197893317,3.884172710911946
-79.05025475341706,-12.721607758264621,-26.50445594128309
-49.09372917339253,-63.217488937216544,7.9017042835052695
7.452580393925102,79.69176554230611,13.338020944070518
65.38662827079733,46.153129812201605,41.09702311624596
-68.7939609713895,40.90721564440343,-25.05965025783656
79.63500548561424,7.844364764930725,-19.583279887261252
76.02976259500167,24.964788241568446,15.155131263822847
-0.5930953659499647,80.04957588078099,32.83758673905788
-73.39059711493248,-31.80881857931723,-8.191328648494455
79.60690398880874,8.254766869525216,27.29189446321091
78.34353502680503,16.08240080081853,-11.553279652821056
-37.234380437214476,70.80953085335257,-7.2046624284205265
-44.97934800779466,-66.13020896478919,-5.1566414031827765
74.3019683962907,-29.76301593827711,6.432501954871645
-13.186815729601424,-78.93996022711919,-30.286133718541745
46.08228606997957,-65.36114461929665,-59.523660735648775
11.812274338863078,79.20168781889448,-11.84849680629144
10.425402412534636,79.14883884741815,11.769798306039842
23.040794532321687,76.63894718487765,-18.215062599652796
43.08877181803848,-67.3144434343225,6.499934999278856
-76.76691523537446,-22.335307814694385,9.752870952184866
-67.23312977255326,43.27342712356411,-25.406279321244305
-36.99117869681426,70.98258377622126,-24.280338089209707
-66.19495661598695,44.931822894501735,-5.227908504920023
66.29570799901184,-44.71560564461818,-8.541675286246823
-77.979681252489,-17.799246631850323,41.480366791429816
46.840327892165945,64.92160292646952,-33.73737846960351
-74.44181810453216,-29.182054119768594,-34.62132116530433
8.212745973174489,-79.55842534084243,-38.283519823252576
41.073208213601795,68.69253563190419,-13.448325332053749
10.147961358910743,-79.30363297327443,-23.657944693735153
-9.40821909695064,-79.38066815969054,16.731284182978733
-72.21740380695954,34.45461336509259,4.371767903276011
-30.0902241496088,-74.13402078044285,18.38468668221745
-55.315452991071645,57.74070487014869,-14.556855079258693
60.38647011053723,52.404693674835656,20.555069418587316
-61.76570360461528,50.80595487874878,-0.4747299598626908
-56.28890977830251,-56.706967610807666,3.056730042052798
-37.670279866306586,-70.58465197547422,13.005893207016726
77.5649560645735,-19.235968004937835,0.9122017395926908
-77.55886917820752,-19.368190546616045,-22.89483202055433
80.02543989186994,0.91209309521364,-10.642406562468501
-76.81552488687763,22.231218281126047,17.041234103326325
-64.74257154168757,47.082301174057044,29.93186190163136
32.73621876364549,72.99110454018405,0.16167912718316038
25.157043764299445,-75.96693397328252,6.5708882494776155
-73.52317745028142,-31.600763835650028,29.134688982786088
27.926369165027392,-74.95495586032906,15.059587337779698
-79.80131338423628,-5.640626735321146,25.14007738891727
57.36179888102358,55.78895867396739,-20.789262761810654
5.2203156505495825,79.80453263347552,10.33484640481894
79.19308878060478,-11.539680476230235,7.336340898442449
-33.20992937328207,72.71273027071967,-8.17576870317742
-22.3704776024785,-76.86460868080404,-16.88095570601972
70.3637072477385,38.04447720096489,-9.588121016256904
72.29517864503259,34.3896429014137,12.222742034021524
-56.162819994652594,-57.016072600086126,19.61664284064304
55.53901134030453,57.63761789164404,14.200728914217233
-73.5647599023907,31.35851820429093,7.118632266438255
74.57609497583982,-28.973846029408055,-25.7598604792613
-9.007112894686554,79.4763877513005,-19.750986414209063
63.294327270385146,48.8782106512812,-21.29652861233495
4.629188120390942,-79.80764889187363,-7.7700299013121255
-67.60089874904045,-42.69673455667813,-21.653334126897978
-77.77502396399797,-18.9594790604435,-17.81802404219887
47.142872685208104,-64.6752913062167,19.565384567799093
52.64230360745101,-60.22304883361533,20.262536940488708
-62.136163152439,50.43589756438508,-18.787391740907843
65.36641972208528,46.10912210537851,-19.990560210367185
21.225452783597902,-77.12790497576225,4.749109947848569
-9.092508533883516,79.52710652571899,4.601714563052413
-74.75579266796439,-28.271992447286078,-3.463315085936323
34.176958003552755,72.34707929144368,-8.371820181412224
-79.724967373549,-7.028675262510741,5.909332038009946
74.92100894327982,27.87411829406941,48.80814879539955
63.71109409762342,-48.36352392759691,-0.4784156191364419
-78.83398665904198,14.036525433600689,-8.916018900284644
76.26684307367786,24.338582016534623,-19.03504532900156
-19.259880468592954,77.64969501845188,-5.251268898769924
6.758351854755663,-79.64107599884792,-1.3142759383572387
80.02254294354405,1.6675827126173437,4.4583851357235895
77.46051355860276,20.354163045742048,18.4704298659171
80.04189072266371,1.5036161491186903,10.522419409518026
-40.98023454818793,-68.73963067412656,4.896402590371311
-3.969295932680821,-79.89105779314765,-15.875758867780366
-79.96400874726281,3.6153305534180102,4.139645067847181
75.3472990893181,-26.894583161491283,-22.713412654376587
78.82813884826336,13.347255862504795,26.775458090237404
-65.95481366462879,45.17867197635426,-17.389019295018386
27.100402168938427,-75.22793856168029,-5.395261431077765
-72.3244294929821,-34.140007437800946,-19.61755917855593
53.52219910059011,-59.46517221552036,24.073698626946538
-37.47394255616175,-70.58754178979697,25.057558803935585
-79.98898016212834,0.20296875748541013,-46.32501038415212
-73.8209810663034,-30.74484160201721,21.143622943306713
-61.4392175891495,-51.1765200053376,20.80339763948926
-50.382962558623866,-62.32355400322224,16.102999612095857
75.31395235067612,26.942366595130736,38.90206130930609
-63.40930126399455,-48.794764458287936,24.90115036824877
58.95890434924112,54.13534754972779,10.499781732399974
48.78677496085222,63.388603788839994,-10.868382089783747
-72.72522507222831,-33.30641112575541,12.721147761100177
-1.0692865031710763,80.04081471568081,-31.173212908534214
6.109104154656952,-79.74663941847035,-5.221731532794691
-53.78756558657192,59.29846722242246,10.843467091885957
-71.92844820498237,-34.894571548196794,32.790704839964874
-63.7185743039605,48.53756538570611,-4.061020476701549
-77.51692020314363,-19.753062019219847,-2.4602927288308307
-80.04939282720635,0.6777193661150595,-6.67845345368212
75.73398380389528,25.82169419895059,-6.223235581802401
73.64523579336462,31.20377499555623,-26.52908576416545
-44.744495482598644,66.3506631493663,4.125910341392708
-20.912303533415642,-77.2310253481946,32.65620672449724
-58.422964801839996,54.56213692772211,-22.05390034080228
-64.92995481548415,-46.76151145121006,-0.0197028299519721
-45.52373682460942,-65.84574886493962,-18.8253939856967
27.562181920162427,-75.09740768902431,-9.7208056438957
-23.18979466032119,-76.66259598449031,-1.1494607108595885
-45.52240439852986,65.76644051364806,1.416297236901861
-45.717718247112046,-65.64969096927632,-13.044328545066264
74.40098148486277,29.185735623470077,-31.7903347713523
42.416727215825745,67.85009495214867,11.481475828510062
52.59639759804705,60.214281226565575,13.449048139648426
12.837196516894714,78.97637221761678,-1.5615590045445744
-35.59283164990306,-71.51300824014868,5.0376613470936915
48.99542616262667,-63.18345355979371,44.13013716242892
-29.70724312083076,-74.29688453675152,19.011463433799648
-79.88273840431263,4.06162883199772,13.067362592212602
59.713317344848946,-53.23052174715885,6.767851995937737
-30.403486220826277,73.95768580491556,-9.68558682395819
-18.002067961872005,77.92059396068416,3.824164412509567
-79.847253977036,4.34323046990259,2.9589478838299152
11.62273830294334,79.17324468875982,20.357704986823578
79.29777185719762,10.29704854276929,-28.14027291097036
-53.25561008825482,59.80923782224764,19.620699369865694
-63.56549105249382,48.605834540857366,-4.785764602158138
-62.113406981804154,50.446380571672265,-11.85778321516564
-61.050841357695106,-51.87441768760406,-28.62659289783878
-21.72003641683491,77.00408265847949,-6.4803687668919565
-21.104855265344916,-77.07266534247067,-27.893820198008804
-79.91511302513912,0.8702737468137896,10.209444268004884
43.47813084987556,-67.13612414785332,3.3784862610630055
11.237145964339211,79.21913019078283,16.97605593309063
-47.679921284754094,-64.23077704497061,22.21944592956927
-53.80747637944836,-59.118914909726406,-5.2277885627938305
70.40979597123726,-38.116700749153964,12.79268979927473
-37.04096015323667,-71.02143985495006,10.37956770475818
37.12332330100452,-70.87450724359266,7.205874245282015
-33.88575933478321,-72.47508006062174,-49.141741451400875
19.530519825883715,-77.54089559696686,-15.335685760281725
47.78360042982015,64.14043634318875,30.393458857861518
9.347627249652563,79.48122229869978,-47.94347855688922
44.94731986235809,66.16390757584644,11.728828270943271
-72.19168665686898,-34.47194530720817,2.2327159346731245
39.49329482866148,-69.60822783402818,17.544658297227482
-72.49253796627937,-33.98300936356562,26.95370160711727
-49.948732739427975,-62.470852627741614,18.50731975045821
-7.853245095030748,79.64168098780061,-25.75478814230832
54.72743625609836,58.429246219610484,-5.07060456104485
-75.45983750504558,-26.491109458695927,0.6194417981485694
-57.5647550087148,55.59394340846568,18.84088328539103
49.612147172825885,-62.618136176500386,21.702633701351264
-34.6129046573347,-72.16244235869422,-17.41998347256418
-52.95220562015395,59.88118752687542,18.661385556634624
-15.730977116684553,78.41663965119578,-16.699968865666175
49.77499474515016,62.66564529016007,18.691074031378182
-79.33402947578439,-10.244783627878624,16.34478820262379
71.48226209292058,-35.838332875378036,11.053984493985157
43.61898215974182,-67.13898668492143,-29.253256505111356
-79.20552276552853,-11.172628111756454,11.499217044849434
-49.23437595900195,-62.991590969780695,22.845651529507585
1.1531541327317203,80.03767975574594,0.7914076963470791
-61.7713581305902,50.72233363476724,-0.6760221156290641
0.735132756040225,-79.96805048197287,26.068302517363193
-46.56056754689344,65.03541345140783,3.5269443320370426
-41.91537201718378,68.05070853853499,10.59515088135187
-47.97593386008813,-63.976140251104994,-9.039053639005223
34.61990385413497,-72.02808253226239,12.829807385077682
70.28085103870194,38.17511842631352,49.98087289134345
-31.631260774986977,73.4941196484419,15.247921325085052
-39.004247473777546,-69.7763374047037,1.8760328592067994
38.11683553005131,-70.36529532378492,11.307805572485652
64.42251969964175,47.42699298169942,11.88731040238891
61.74034689370211,50.800686217727595,-32.05653333375865
-27.606581738257855,75.12010605340049,14.267931695751905
-19.073154113383016,-77.75511203542933,48.28227431498311
8.287151320659197,-79.59224867126935,35.9632930435281
30.10976286638063,74.10478456697965,8.735223150323003
-31.305596410220016,73.71966396505996,-12.90080315366216
78.4394162954958,15.687110505820876,30.993597357365104
-22.548282390072245,76.67393894611507,16.217130000453118
79.67402520583404,-7.039455194042623,18.58947875367869
-43.86826754263763,-66.9018357007324,-6.113985350907831
75.41403452425466,-26.659414186191245,-45.299383775157
77.87055025171422,-18.081385722034362,13.819915595659644
-61.74227483057604,50.95804151219643,16.550435199921626
-74.38296515210406,-29.374696627379432,-19.75883461173458
-72.18670508546329,-34.44278064483062,22.31998338645832
-65.99338382101773,-45.152207165867004,-28.570301862435052
21.309521783355915,77.03640971142191,-18.928619727086968
16.67057154829109,-78.30776641717767,20.749377448800338
-78.72737101671288,14.430643663087936,-21.053483890051616
11.09507903032555,79.2075484454706,5.400299995670572
78.2609369870632,-16.671528653549874,-3.7276604551302848
-77.4475268723482,-19.978083269768742,0.5029311680322608
38.5882870679802,70.07520071897538,6.671198788280166
-17.54788340269491,78.11321672602665,-5.18641177319487
16.89925671332245,78.19407254109895,46.33422113243434
78.54685389475542,-14.591028886741634,14.546694069258944
75.11215346037852,27.81016531529896,38.86811480626907
79.44371027010355,-9.802119277896242,2.8866164581582963
78.83950793219744,13.28902355478095,0.07663247697140414
-79.77467264607164,7.029179474012715,-15.271433239728706
-63.85867116334779,48.277415562500614,2.5513010024922043
8.741031560263798,-79.51144213488396,-9.435674303148375
23.409362312211083,76.54491058617185,-34.60882804065425
-67.4573799386609,-42.93834941998107,14.807202039214042
-25.332843761837506,75.91018260472318,-42.40867221618234
66.08442812167904,45.04143242096524,2.401192497044678
-25.757021519922002,75.72986839765171,-10.590878086010221
3.0822630636491524,-79.95179431543806,-4.0511441455966475
-2.4084371470099315,-79.9412871921098,16.070600358001926
-39.99709777507611,-69.2223573834396,-4.336462087250822
79.19079614421216,11.252328229074829,-26.533300440716427
-76.00791568505925,24.627735074463402,-11.733840999751848
28.494342633703734,-74.72305637493457,17.58978672809009
-65.34679401368916,-46.210780531726805,-23.563058926655124
39.366655422707964,69.56339299949991,-24.790790531997512
-79.19783970799658,10.930085936107337,16.56315308302171
18.160649915901548,-77.84461351626379,-3.0909666356345684
37.340957073795046,-70.73330203037757,-19.48195815488861
32.11335456740594,73.27851152433595,10.547025675129369
-11.477727785813709,-79.15900084511341,-15.757013637572037
-76.58055667430533,23.36956150666455,17.281766986738976
14.653684839171733,78.60743563062229,-31.717919636213253
-70.52992562266306,-37.71366072704042,11.042537478846935
-9.384205958299148,79.49197500323419,-23.196637896715902
-65.47261877311729,46.08974172091996,-11.904386737143241
26.23287582196695,75.60470135552906,15.727810157709376
17.782862377492453,-78.00075831729512,-5.893283931402534
-52.32185477605413,60.46126562223573,35.20603349033685
77.6513851273119,-19.50928390162397,-4.400716143310136
-45.53098157319878,-65.87112393994619,-39.80422424206007
-34.261888300775205,72.3508623569643,-10.652499707238402
42.99143219640105,-67.41437511103686,37.147026105335144
39.838799670613916,-69.38714280023244,-18.865309577283185
-36.2095509427114,71.32946589342346,20.03991960232305
-77.10655879037061,20.988592018606926,14.778626691952434
66.91656233029735,-43.90855360671286,14.15305025773539
-55.36489239066641,57.72485958465662,-6.702037231819293
79.98319353994165,3.4839998570861512,-6.667798137010598
-28.615567976067823,74.7329224883802,-6.421853511699314
71.59154402511321,35.75393631574551,-29.939951208408427
53.016241819373604,59.96404741446087,-26.388026999357383
72.74411757592502,-33.45044896791071,-14.016625609968026
-49.14732823111825,63.17610444152956,-25.243914095429535
59.321911950684225,53.69475181047885,-17.074921838038396
-26.20015058973137,-75.63734649342503,12.61339265474367
78.01085420449132,17.756045635514464,-15.191240882180473
-62.838386279217794,49.51574382992448,8.256941938775629
36.48736874246464,71.23966709551046,-12.747822553104813
79.60491887289469,-8.463132249582568,2.2677474379535307
78.09342389896003,-17.30330318471478,-42.02989908092671
-39.622868513170936,69.46597788624703,10.717528383729526
56.12070197537444,-56.986909303151435,-3.494108514137108
31.109848367793116,73.69511472703832,12.710335105751636
75.347308745178,-26.99912016745765,-23.952867215742515
-60.20769342395338,52.591833811214016,3.7467660622239296
79.40887050472547,-10.020821742077365,19.83055760996614
-73.43656081727522,31.784041577758718,-31.039282002060556
72.5760505601739,33.759660161194596,36.08847033413883
-68.54753571699763,41.280608205960725,14.409018665294447
-19.845179978653622,-77.51786789768366,-6.411836166828387
69.8097000916291,39.026494291221475,-0.8152160305583398
-8.67074667929927,-79.52985943939385,-25.840932606366657
4.729371740496274,79.91464053318028,35.611367285466564
59.580724334265525,-53.31705172956319,-40.062104076515524
71.32453672444048,-36.18535205051491,4.590053986257493
-18.39160377511897,77.8903469527726,6.846967911433469
66.78072939496089,-44.134807503067464,-23.313613733090072
67.02804008046186,43.58027704364439,-19.59690198842859
-48.77820194912209,63.41469557824479,-1.526249242439429
79.98513889586418,2.0735401792701365,22.203849185723705
-0.5117391756535861,-80.00720175266834,26.14193178120808
-79.53426550293236,8.725758701631449,22.292273003959764
-6.9175652591264525,-79.71285542580462,19.305982659026274
-18.52665711247196,77.8809329774524,-5.129168526631046
-80.01230097626843,0.8249455110865238,-36.78485800885205
-34.434564970489006,-72.24442435309064,21.32704347637793
-79.75584200788599,-6.1851770522908485,-18.630249504553845
79.04949032985178,12.684587952121367,-24.133282586720128
71.01337240838245,-36.84113290937456,5.70423501617449
-16.555741989795663,-78.3027785843592,36.014297625515766
3.274675520704333,-79.94771686821643,-26.487649176934177
40.429720068679295,-68.94392588865533,14.87396470727867
68.1734960728345,41.868402804297226,-25.395880971829406
-25.07290864615982,76.01456031982896,13.481599219525917
75.88462929630897,-25.342127945372074,-9.390258727783493
-79.54221323298474,8.319913022851885,-1.3188877092761897
-64.02778769663414,47.870734650878774,5.750942605557874
38.9077530979174,-69.8083493186083,3.734043970006449
22.31135228705685,-76.91724354232355,23.174338237130307
-32.439577805426275,73.03448582332537,25.444440257493103
-77.59706519700003,19.214579431262244,-10.789329413051224
47.20032680437039,64.65537172371495,-21.487546644553454
48.929679668178075,63.33538416708162,7.5655628175175025
65.38358449373924,45.96152446629111,5.721887026220966
75.5802048053084,26.394181407359845,-9.202738216826807
-79.27521642783552,9.843312142948548,-12.251376370245588
-77.31399495208677,-20.784112555515332,-2.4914130543981545
-33.16620980195395,-72.92237012727342,23.730488119630245
67.1011377727767,43.43663225957821,-11.76462050520755
-62.33212172343551,50.1974915828145,33.573101073598984
-77.87077328991883,18.141686693214744,-34.53488581863793
60.53055837689782,52.46144213336788,-7.343476813860717
-7.787516108222424,79.67890877952348,-8.605967642419607
41.911082852375436,68.20530569371064,30.858423424066665
-37.96151233115462,-70.42095261900799,13.852617851813811
15.097779696917325,78.46444420712179,-46.7195493506525
58.44738197471758,54.69857843076591,-14.67221198020718
8.462225290208107,79.5777371824908,36.6410434589538
37.38569430185711,70.65377724274575,-6.5451093216021174
65.28182043264076,-46.16593949241292,18.70126227748986
75.89625535598964,25.42744779997451,10.165325490836937
75.42614556257688,26.42399773344063,45.44096500364317
41.85523390042204,68.21820887579547,-9.700252630251798
-75.87083211133009,25.42786177803245,27.691811917181855
-59.16092589430872,53.940296006119006,28.455414659551938
-79.91227310517937,-3.987613493484853,-9.423381649517392
-33.537040031271985,72.64574816054353,17.999750658927404
-13.866840081628345,78.83361859762427,-1.7109020015029648
-79.11881673602913,-12.34935466299403,3.361261753067903
-38.83591209327252,69.87606451601657,-1.7943395761506116
72.56521840149288,-33.76131379690686,-34.963187471941815
-79.50395196556276,9.225008793649751,21.651363648216666
32.51793387564654,-73.11291038347575,28.63431732467869
76.54383895067451,23.332336938446723,-1.2224099829478716
-69.12070220970124,40.27685021975225,-7.4440984326917645
-4.157816979298863,79.89849729904834,2.4656100114013024
57.99009931607567,-55.0190190480631,41.43721280590419
-79.60109671696861,-8.138371233411483,-6.840516821889801
43.2184270861641,67.32903761634371,-18.829231133806637
79.62368728639713,8.543095418193076,13.445693984831715
10.692854261416551,79.30697164541957,7.182476064977935
2.718463902609572,80.02830341542477,-8.058460930169872
-79.3367729867445,-9.663869294707192,9.704959367218933
68.70370272637645,-40.90993849455128,-17.45473154167049
-51.83092243603205,-60.93460161743678,20.54848346402013
-74.37763586909116,29.523069573032732,8.058577786584667
41.95945102255526,68.15459807014597,13.840296923493527
-46.846646089894826,-64.77849133807227,-5.832003742539289
-62.48605550940715,-49.90179910070796,1.3381071130731323
78.60108646282427,14.65203148794418,0.4672835517716054
-73.83716562283706,-30.776912756803675,28.190490678426166
66.53588914648493,-44.273575163728545,-33.889560662781484
3.5190856388953295,-79.8542603008179,-19.997067360429828
79.50275209401923,8.982576313984511,-9.257850136619405
-31.77934399508247,73.36120426099896,-8.919207233202478
-79.59358550408437,-7.601762167806258,14.52292260930047
51.9489730606721,60.84549327790036,19.63722788442545
3.1723173778060083,-79.90600229347793,-9.55145689483498
-79.87476294139134,-3.5301652354227695,-16.110340902230377
-34.18028436189697,72.36323128760783,-10.642708976567672
18.862383400550048,77.67390622903531,-14.800516095959619
49.36753087330849,63.03214760860693,2.5285875217696647
-79.64336254247097,-7.870841515823348,-4.316857303363748
31.631386669528297,-73.50237698061109,-11.104144568822472
-79.84309096903868,5.982919218465129,9.492894093174595
-62.50026913823446,-50.071946226492265,11.092700320808733
-27.155903926199557,-75.27984671578731,30.895281794123083
48.748768422618106,63.48705623216203,14.318071310719054
-71.48026605155023,-35.81206933335777,17.55777314660958
-54.53581116715294,-58.53588392494225,3.097938081196911
19.520379252802197,-77.62828178068301,-16.508556674277767
79.58892260023936,9.106284805678126,-13.482760366983218
-25.582867889900506,-75.75947205612361,14.196328712305998
-31.215471671969315,-73.65229544201158,4.596432621884691
-79.7277497767657,6.213283833023284,-4.541016957060884
-59.641144275289946,53.2471172287074,18.9982590919207
76.28722723403605,23.99177949139688,12.83099709002849
16.251138262707364,78.26498448358804,-38.37691812654048
-65.54532516560126,-45.90807125219718,-23.834888603094036
-79.10099151060079,-11.5840257789075,-12.059113144459523
-11.893218305288821,79.1955782789925,5.49131151236442
56.31157379057232,-56.85485682274597,5.671006959192319
-49.15312093417168,-63.00677409885453,49.79709250727379
79.91918300617036,-1.5384121897577796,-13.452969188835375
-33.01585273111202,-72.84372531263375,19.575722886672434
6.874835832569118,-79.73931303370051,-37.571757735457616
-70.6254494939267,-37.595038326025936,-6.594520409536491
77.05684731376233,21.327115451177338,-0.618346066433104
-78.04720824389062,-17.818256789884625,6.2217523800019015
-37.152038561545325,-70.85862130586472,-11.173223062572799
43.508138729714425,-67.2080131845609,5.294720905477755
-29.2712246165071,-74.44568244887084,-6.8841195687066
-59.930127864980435,52.875989827966286,61.24552507132578
-31.63472344782218,-73.47169102899385,3.227695679537354
77.9632228560156,18.078094051350124,34.51523487228192
-16.81216221243817,-78.12152771693752,-18.704628567075027
-77.99075426112198,17.82037360009259,-17.1113749292833
-78.28700909819179,-16.647791142155082,-35.60584051554847
-36.364276026567204,71.26527048769135,0.7954704679973857
4.398835805734687,79.92388267377935,44.47063430979574
77.89633253194343,-18.29537797380996,11.913334931454521
-0.9652252050255189,79.91808835331895,-1.0176296990126623
20.930413045397508,-77.20619141353859,-6.665621272100787
-77.94954795794028,17.866893912622057,13.584888172297543
76.815882912252,22.178206551645378,-5.334997117069415
43.7418086746794,66.9232923728432,-1.6667494659769142
-18.937509591406858,-77.82406546153031,5.431322341088887
28.45410195730251,-74.66042396892821,-5.244135816232087
62.8922552921273,49.5013939334856,8.73132320447984
80.00563063851719,-0.22454150675071918,-2.84139590158612
79.68207506796412,-7.242857080533417,-8.470613031300115
14.976861849183141,78.54081914109834,14.092805399809967
-58.71605046032333,-54.31007107733449,-0.5952036123205094
-79.47276421432935,-9.40208003092435,-9.873605907575758
51.760561291467575,-61.02892773084136,21.932076497961898
49.59830339156507,-62.86679201471643,-24.607375530063138
73.78361324638847,30.83353627135394,-13.07800213024711
-75.44654174172516,26.617503908290672,9.73974985332359
16.580773471896507,78.34870558014967,0.3098715289781311
15.905038927710473,-78.38883214409911,-13.21987024945799
79.1028262094184,-11.714942959726145,-3.5259004752484087
77.280148005108,20.660400190057057,-24.853199961583773
70.15303594362209,-38.53597690270153,-25.35384398858167
4.0063573822192575,79.91855439725728,-20.5223774878438
79.8023314619503,5.6316411367726715,1.2265820542089059
-76.60325212329285,22.86462908735154,-6.025230949705039
-76.49325277345736,-23.228732665635015,-9.642271102671438
11.746771810367694,79.16680914625547,-12.829417136863432
-71.91357117542051,-35.08205382029591,15.253964619184996
-53.41019176880148,-59.48813659990287,-6.283142312383165
35.850750991487615,-71.52805191733758,-10.516221917189004
80.01270621198672,-1.5084889045222432,8.119806449389506
-36.50333645677173,71.09381242261158,-23.740067997745165
-79.81863671203183,-5.084723402318628,16.138516070659957
68.95519812171281,-40.807027267468406,-9.182857815316787
2.571719024674075,-79.92566225112101,-15.282671544608322
78.81927013832922,13.927103832506623,-16.94335227814187
47.31974435837954,64.48060425542242,6.053672754990721
76.24880658596875,-24.101231340002233,1.4911235193248087
-7.360493845791092,79.7529910242644,5.934803106038818
79.20201802621861,-10.520984849157783,15.435126707225502
-11.131262196266968,-79.14375865277661,8.232614374048149
