634.3399633554751,506.7762552226345,0.20489115447631348
632.8795039724823,766.190517717497,0.2311174986271518
591.0977152653157,525.3280921024495,0.20534766045412742
619.56873727401,808.4031232673927,0.13599188445634613
627.3235268181769,313.30105479534745,0.26926009868329953
601.6889149398844,621.3610137851432,0.24963780517509507
591.8778616292011,499.6941844952644,0.15728241770528245
613.0831257610822,503.362503059568,0.1561762903943909
595.6277170014772,752.2391220353169,0.17818741707435198
609.9360785229196,575.5282697116496,0.27905101881491223
592.6873453195467,715.0534329885888,0.1144196986743169
591.2249249100888,580.1609245017294,0.12102806860461586
614.823239575545,435.5809821514712,0.23001251745019927
582.8955452614159,694.1669012795755,0.10901273138210527
600.2202206621502,516.6808209895632,0.16816079860632938
599.4803014499699,503.4566559847741,0.20075035142014921
603.1155869835161,389.74208914107135,0.15531349123999572
571.0566639365891,452.67308046943805,0.15964096703552225
605.8126609793256,813.3163742227629,0.21888182377991852
576.7931026961554,570.0731201001057,0.14932994427937005
605.2233866286724,717.2079314577269,0.17152897188250338
568.438569878467,610.5962196057905,0.1599868596044015
558.6682870210667,586.3479357988741,0.2633055105490432
563.310930148597,868.8498548330076,0.17907123234162053
621.8948299282889,401.1081829085416,0.21926185137498494
578.7017783226121,724.8400578129704,0.16092210730101814
594.0908414566812,757.1635436455986,0.2724159341217175
572.2165971235775,578.9061504260093,0.12195371288321463
617.6760855336257,516.0233634091371,0.274510443701875
621.3029604784593,760.0885320093536,0.22379296747770822
622.8670501498931,679.495314553657,0.11584810296856066
604.5354327603472,506.1257914915635,0.12973269383013722
568.9275175842713,637.1104038494824,0.22553420447203706
614.9351093810611,1036.9685581045164,0.0902206316435294
605.6971495126049,478.62831638206717,0.2548054575352522
609.5244205618085,759.9755964039504,0.25440048654199515
605.1698577824199,401.9634410793353,0.11705955900814265
587.0274518660032,285.68700140461067,0.14903534165340468
599.151908604975,554.8837615329718,0.1650762402296318
587.1208647573213,686.6748103074212,0.20344319163406388
618.3676476722379,372.46368118975283,0.2157484837560514
621.3840396567284,477.61504173282276,0.12169984206023465
625.1203258339259,868.6853365772381,0.1637480273612008
615.3006612694661,456.137530435038,0.21614392885322656
577.3431169088051,796.235422402626,0.23574440094335514
628.2996974011559,783.473401401408,0.22343091349882507
583.1272292099138,733.5779430225713,0.18692109450010225
592.3878776156478,557.5837334857665,0.19016682305917387
594.1397126659228,486.13220754417233,0.24133381588425143
593.7111138931632,686.6801503168637,0.2195620998363147
573.9260581373428,613.0069134361448,0.26434104133490816
623.6372918897423,762.251204621919,0.17463780279942406
563.3133285529128,738.5010263928776,0.21073291705416966
640.3799905056555,687.6739122790093,0.22502407586473933
591.5061559131294,552.6993499318436,0.17051449252445322
611.5347251181382,501.2746339792051,0.1076661387391123
629.9297373149161,375.09347686792677,0.23949588081556392
627.4291377446661,366.78844341208884,0.189690265195095
588.8595417629265,609.6036880279883,0.07656240817110199
607.288137838893,627.1932195692045,0.1578234179383116
647.4662361694946,135.00515976784396,0.23216261596131055
574.9124366881958,722.500156773016,0.21818052908174254
616.6769450882005,411.4381695984206,0.21472089860638174
606.9961186370645,660.0170792006141,0.20669790460021417
630.9608493670474,618.2659142033173,0.2580033924063093
593.0289503287377,194.41712169015847,0.16944682606396458
597.5762664185045,701.4891534580141,0.15117721147102448
588.0963100723519,131.6401560465037,0.19208573394313017
599.8930146373522,650.8659892326605,0.2423499950808742
570.474636710859,518.8960726738624,0.27355034331233247
637.8447809863443,427.6544032605702,0.24869594186978572
618.8167888905373,606.9541174535157,0.20451031201656483
587.4801762286896,814.5695693985255,0.22073692875421327
573.18470167357,684.2160130656387,0.2558786920268207
573.5352274147122,629.3935746173074,0.25137096892525496
587.7740981191529,755.3239729410725,0.18121854417836347
597.2111712453489,781.2703148109622,0.20508804255423868
587.6245268890196,1020.9635585979695,0.20503081041135357
613.3498358293198,883.2015511088274,0.24571855431104125
647.0876504222979,643.8365962634559,0.25242123661899496
599.6705684921683,376.72287279430236,0.26793033995134025
604.1921642797032,997.2205475017457,0.20248803213236885
553.9395672812266,657.2917300035327,0.20441965614294838
606.1000011916202,424.89043309800263,0.3000645220673716
628.9591654790593,370.24263042306666,0.196636215080676
591.8887572628985,493.25567999170437,0.29402692380365597
622.4663189269265,584.9802947891301,0.25071567777864945
585.5364680858504,100.81932719427084,0.14360390774994794
572.8624062642342,449.37149909212195,0.22149608726593648
586.0297522720332,547.7386394571629,0.25015224562423355
607.2706907292568,904.0321054348724,0.29581566867339665
610.752274606684,886.4143126794044,0.24057704029445967
567.9640883526416,936.1808953196905,0.19621908712791086
629.7630141879486,575.4971208255488,0.24898319162312774
575.7655596325149,809.1811542685614,0.22396868921314217
597.0017106640049,396.4195718236516,0.21370170851617332
596.9079799733016,567.2547042228914,0.17689515791376237
614.6256459524235,940.9793370796741,0.3406283127918822
586.6498957654053,566.5128827055491,0.17940109739202686
611.4453102157358,591.0097490581219,0.11714735753705194
605.4242532041644,816.4113227420835,0.1380729824333363
597.0935473092158,543.5632642086978,0.2067973185026402
584.0372308494659,461.6883038695639,0.2537027383147503
643.3277578518876,538.375495312055,0.27659734948277875
574.1462333344231,859.8088416541764,0.17032883327174142
632.8017948578474,474.5838797655574,0.21157742747095507
586.9521864513373,568.50021537327,0.2366962984217084
612.039593988274,608.5827235470352,0.21221812590863598
603.572536394557,592.5345227747849,0.14336865751292777
597.2317383995603,456.2622022663477,0.1666635074970064
597.6432787855877,538.7747481917587,0.22092878704639501
615.0853738248787,713.2324173581403,0.1838688517739527
618.185096251796,650.6001806123966,0.14879353104919796
617.3738349846062,738.972678301973,0.18196426107120056
561.4775383897278,460.04840444685334,0.2367640130284399
610.135375790824,598.7431287117106,0.21028796245413794
587.7405872998829,453.110412795034,0.24839524184228903
625.0969761000067,989.6183296116137,0.20708248320867595
586.6284533891928,445.79711922750374,0.21257168946019783
607.906431297637,502.11690149746903,0.2154334008239485
595.4893594323606,589.9043524557213,0.19534016328099987
562.4129208669386,578.7010542963739,0.16292382261178262
622.6026293279486,569.0342108333574,0.19940333206551322
615.6660895388557,644.9946197900507,0.20596094844477336
633.9550878596214,863.494139980658,0.17004649319370363
597.6238461036813,412.76271040450115,0.195204741985091
603.048632946017,421.50231105297155,0.1719840484080417
598.245301902306,533.3745228254969,0.21938281529186093
606.9460225860782,786.7212595770704,0.22300519774009683
591.80738233713,654.5874067825818,0.2813519827479665
572.4536011913508,660.7665470162275,0.2010677379077747
574.4339848031242,642.588569679931,0.24263282457248733
568.5681367310206,493.29751452246353,0.1240611808610647
573.3848017691223,508.648664663464,0.22829863908732
620.6979614497687,634.6498520965883,0.21501689988658382
567.5387164839426,582.9420958668314,0.15203282835793736
600.0268385809494,620.4070492782794,0.19761832566802293
599.0863025199985,815.6524608722327,0.13652467335620316
607.4516319139807,760.6089028295629,0.21028771218134565
623.0620002306133,445.2595803268757,0.16310344678412783
620.252754991186,614.8393027700978,0.18392877401607435
578.5294773192554,326.52481522980554,0.27642223190403814
590.1353404467266,906.2192262483104,0.2824163653611905
599.161105889894,732.6236630028125,0.12075919012300529
583.9006508612374,702.5286723074482,0.24490759529494813
615.5311308020689,516.421509148075,0.15206442146180835
611.6652282481052,451.0315831216492,0.209429960274456
626.6171119262698,233.6088945399561,0.1703366109845214
595.8527452750362,687.3919836556199,0.2238841505886271
624.7390890184549,576.6794422835666,0.1412828952674045
595.4245127293251,804.3328997395648,0.2110061656893743
592.1108919274078,287.7206934863073,0.21067325816469204
644.2691888965106,569.1847379867309,0.13352503460738177
600.902695973565,620.4891289047256,0.23480275667538775
600.7345523866849,612.1132286779016,0.13123875546218164
594.4844057918662,750.0679325093363,0.2271248133524677
587.7711449905904,912.1371337710709,0.16502796860619673
581.6187504279206,1010.1519784242696,0.22379527177884137
603.9745707189284,312.5618355592932,0.24134101088963442
603.1921355131987,592.6957445899496,0.13646317724820817
607.3551778921843,381.66503698565003,0.20579473120709488
580.6249582887239,743.4386539667315,0.20450820935614522
613.201898952198,560.8925815943358,0.11545541381708903
595.3398572816593,395.9335596984969,0.3053089672392901
592.9680334863357,828.7308717604701,0.14724314899271812
580.3596272758693,752.4438571156486,0.18560371192172964
592.6105738728497,1018.8426977442839,0.21205500508050928
613.6770055925899,711.2395339943639,0.16335778494741943
583.1330327317697,1042.3924019186793,0.2021314669830362
622.4740943235425,810.712717959335,0.24119680600430157
647.4903755824644,770.1788255205677,0.23373229259795733
597.2700794269037,581.0452540267204,0.29005541864290757
573.0025856327492,177.30054607694024,0.3023973809638417
595.8938827238384,583.7798957653973,0.11929199957013677
590.776320831675,681.3877812063408,0.2263799888763834
618.5230543187818,762.6552170437074,0.16104006899835938
577.5247557876339,604.9998176447966,0.17934890568010753
609.7885147549663,719.5149320250703,0.2896607046201601
612.0470365834327,703.2617403309022,0.23637818807630606
589.161775355456,413.11617849503,0.19429498100332265
584.3457202758398,773.1059715057634,0.21513177284942206
560.4896805455135,443.3965278157017,0.2826874186656896
592.4427226800883,846.7780373940224,0.16229519804439138
614.3459153151088,781.2107782662691,0.29192493143270715
567.2979480770736,920.5833044587578,0.26549265769713715
602.4420751392304,279.1033946466019,0.23520584433511232
615.9112714476863,612.9544452574069,0.2735229386517777
606.2078089827589,595.54418926335,0.16762745592422992
587.3794553810576,458.0979491335792,0.1814016054262804
587.145527464172,820.0141639222509,0.22634734666319256
606.531586075645,538.8148835216072,0.2576320818772496
603.5738083429001,526.1798609314529,0.2236764960418057
676.0925502246873,583.9210877924011,0.17206957441596452
625.3497504470022,769.1186251197462,0.28205838841572495
612.8308375023944,804.2811703493498,0.2207731033830358
601.5003306890924,342.50770197595386,0.20791494718469766
579.1608316868578,709.3487492957692,0.18872278606186726
582.9615189584907,713.194618708005,0.224734206265243
560.5722385583823,651.2840453492281,0.22148126786398326
552.3724657353706,412.0119212609165,0.24003447771326783
576.4668795327959,869.1372392559222,0.18930556301656387
589.0120067252471,607.9390552115666,0.19039336300655563
592.5732833493279,766.8979638227238,0.09129954541775594
580.4520989720944,637.8687709292489,0.09736961941574283
614.597364056492,592.3824063326512,0.24534505150133584
549.0841273172875,783.8274258521323,0.3099459410942588
608.1187054240718,608.1225010826043,0.13972864016225958
615.3057766265117,505.4561026991787,0.19208483148478506
623.3838264468238,528.5395605954601,0.26322825385996823
600.8100406674916,602.8701003430069,0.20431832157129706
614.5642388390917,816.6688478576839,0.22952177035666035
612.0491726868743,727.7648318833953,0.20241968747960837
577.2153170177637,694.8026305082543,0.2596988694141362
605.1007158822649,416.7853708223967,0.12062682800994151
607.732632814607,620.9713856335202,0.24568430311162642
634.23582188677,809.9682991574612,0.2760809955172716
567.980473076952,613.2151521747604,0.16165841023979768
596.19623692899,666.0689601969298,0.19195825643902503
620.8990776163371,617.5933863684546,0.21823805914076683
599.6523852862183,764.8718100997771,0.1786988134876673
602.6316520057276,459.40098899886164,0.26325751205302883
564.7344636674704,438.8721756175331,0.13751383721275284
616.2541141060557,857.2329610569495,0.22542098122809567
580.8023217609157,572.6763789177962,0.1789499054274753
608.7853396897194,559.0759594521616,0.1477668895380067
627.1750301925917,713.975142989262,0.2695896652646569
595.4517695121168,562.0970964587802,0.2279497773229019
579.6767715148111,557.9781904980657,0.19570376777071796
595.3152497372779,748.2420295957064,0.1285118399095232
605.0434054260645,418.4756897662236,0.038813678536876894
605.3161284504171,787.2595866515442,0.21485784492335538
628.9747640658873,524.1219321228787,0.2135643147042396
609.6113389233016,367.25790474294905,0.23040555569053775
611.5138667862462,507.25056766417936,0.1393147058161526
623.0626301192974,759.9475078310836,0.16175210936368167
594.0488318042842,848.6981439890576,0.2543777413019424
634.3254622974447,885.0102774239735,0.22710185941604263
587.8801257101334,685.7986273897434,0.24432779377566483
566.2400767412698,623.3225726173396,0.26895203478138613
586.174464862176,614.4343443222649,0.21354032625164449
564.3319068455269,787.8756883694105,0.3080379981421957
631.7380005200652,318.8075788123753,0.16512291619752056
587.5514981410172,512.7675001995312,0.1322790452647074
606.4555174772247,462.8414242421452,0.19120545099170796
591.9972783976062,900.258497047817,0.10842232768947146
581.1777339747605,703.2715980540789,0.1157288192530504
566.4138047089609,497.999069465067,0.14710184420866348
549.2171226892513,1122.8409677854997,0.2157359101884392
599.8429041929485,454.9908702062762,0.20160429322882273
571.3771884455194,644.226690012164,0.24322292665236295
583.2870119932421,667.7200451325689,0.25217952695515655
577.5450690948855,1112.1047770257433,0.16967902664640688
612.514437145344,707.7362411402435,0.21474208780749227
605.2185071961413,901.6739174859345,0.23419224472956368
598.0410576104352,469.8450721153884,0.1543745048996648
568.2452771769129,743.9794181718719,0.32583906495531484
615.9112550304377,316.39136320874746,0.3131647218259115
598.2732986640698,600.8353309477616,0.14634347542974857
622.7251471160035,738.1816869388143,0.21083299495957716
587.3728565044196,669.378437162559,0.21737049288389781
622.3195945648966,693.195432325773,0.26528734730101694
614.4803741999467,609.0232283488572,0.16303164210511517
625.0668630737332,367.2506297274492,0.16512198306060355
596.0846436950465,367.12129520495466,0.14138962731122345
575.0125021443924,336.4057439830993,0.2684954534874822
609.7280836473702,780.0643132670223,0.2579311619353617
586.5718138249205,430.2772699092073,0.1665741419580117
587.7802165007441,383.04118988377996,0.19123624657022276
583.8694406456144,825.7904509672046,0.24315843817157204
605.7855382889097,376.3758286249651,0.14435003971899718
597.9869348651248,639.9149264644179,0.20447109472487002
588.7040390465999,857.9332351330304,0.19737381501826334
616.8900657352644,507.36780397248793,0.3330779474736911
615.241257247147,399.7760392857505,0.18284379277194832
573.2277417090162,529.9407171691481,0.17499094104667673
587.7031168825672,523.8506151066945,0.2042566875870007
603.7342787095075,588.8050073936265,0.25895085602627743
595.6608007132821,422.63771411368026,0.10190460143784631
608.146709008521,650.947966890232,0.214990734825825
571.0710188671939,754.3491771088595,0.2025548774495125
593.292340921201,742.3258845553522,0.26649419466544855
570.249760582249,905.3564301897429,0.179625822995446
574.8023078240018,563.931672955913,0.23195589129155322
633.5585840519071,880.0553456162527,0.1658111226421892
610.3205374630296,1017.4187337006103,0.14208509548133236
606.4723136117289,784.5708492666059,0.20793138174866577
602.5554847028475,510.5992704974136,0.1893255440966109
588.3905661092382,435.46527280175843,0.29203335573563693
592.5779119893709,711.3014324409528,0.24758818843814923
573.3843602309439,530.9545437288504,0.2886377508855696
605.5575592343927,841.4996466909861,0.11195840341856564
603.0560522879016,507.78149459539776,0.19797970030827977
586.4574026641759,970.4662652272582,0.19949747021857342
612.379780355281,490.96148927073966,0.25193972378384444
612.8247351021341,778.2703004053902,0.19012297149030172
616.1923591009291,980.5784924201928,0.2088961075217015
616.9426799426316,821.2871826564622,0.1409286778946347
613.6034108044747,570.9308372928433,0.165023477417431
621.1035167269429,934.1315427228326,0.19980065257264448
600.8655228922551,744.2829341833742,0.20516535299543429
622.385639641737,675.5268408277348,0.2057172020082837
603.8772398989372,670.9673520119354,0.13276006402951107
593.6796702261951,796.555285423382,0.21980251813561213
623.6637757393739,613.7539551388371,0.1504682059207914
598.0680452107008,916.0729631162619,0.32546444894764637
601.5940297262187,736.467327895045,0.2664862845685142
599.8636271259045,275.7928774214125,0.16851698705397644
600.4562458658829,848.456506694858,0.16942116870412216
591.1038127274225,581.4515969555522,0.20108858055271273
607.8662174863875,735.3708917633663,0.2162298982906849
592.3092879310408,132.85361038690394,0.2057397261219877
610.7575541146456,775.2786311456812,0.18177267207500616
602.8737135035086,365.0976335592349,0.26183755018859894
588.3140113007016,603.1908050644952,0.2025784440154615
603.0926389050956,458.8613674606206,0.2297274437263298
596.5278255449695,264.96371693818213,0.12586189645520976
640.7866995977215,434.3873831453399,0.1972177288928364
567.9969505904704,932.3709995247799,0.23345428627540438
614.063426169143,827.145609482719,0.25674462161139455
587.1023839877157,564.747197195134,0.3123026224858202
606.9274978909207,636.1318294386251,0.15786821428071215
629.7870700337576,572.1763442624758,0.19559483885698695
628.2356078524917,397.0779000390013,0.22132665590051848
617.9228116863651,291.47397969324595,0.14842914941375562
580.5744915865965,625.9680600206773,0.17833490154132894
583.8894173473648,240.9804311715405,0.24403149928573137
593.6699750123007,693.6181762905015,0.29568551916405544
590.8893233473945,689.2089502318152,0.16391077435525198
587.7340805114808,597.0756964556746,0.13368422227533217
576.0846719806134,617.4268860411952,0.31696892454291664
619.2433824499317,647.2121929247035,0.249551640130815
595.7273879356385,621.7543632016985,0.12180771992120121
596.8947799865764,340.63801029279045,0.25134158217903724
648.6779116806182,414.29620342123087,0.23833731507234548
604.1321665803794,449.07695048947596,0.1591896010565467
589.8091067318918,786.0212881223799,0.14376054536047086
595.3787142783265,823.8161256679795,0.18661654933152258
601.9544969557344,1033.4479143744682,0.1701355928996698
629.5669798441356,419.95223336273483,0.26310556140098723
591.525992217926,693.9212050274022,0.2379133147350171
633.5537048028897,277.4188996890949,0.08307241869467351
607.6124829825317,570.946870423166,0.1099273172057238
599.5129000356425,942.1746034795345,0.20823264564789587
585.0491755426187,741.5026886054272,0.18333315537119294
589.3425851899821,349.43114945369655,0.21106393454271594
627.5801582458795,763.9550986396998,0.1973496030879066
599.1052283807614,666.5723231221866,0.17964777308150476
625.3179989422089,226.60994267751744,0.22297835379958364
597.391364068209,539.8124774411538,0.26442362204550995
601.4273800234258,180.9856716025812,0.13614726282456724
605.0129707079726,849.1243805364014,0.1348665521954373
620.1871483565833,721.0863004741075,0.19638828342507184
621.3551039373056,571.0093859560153,0.30881068282759366
613.3027486527252,329.8365553439316,0.1955124272811014
591.631529642753,804.2333452108293,0.1933504760663135
658.6903567089291,768.9200216845999,0.30358173140590944
601.6606267531644,681.0384860017393,0.18078000656940846
610.3641418433483,595.6463513960507,0.0636701369208946
621.841774570594,318.99440491789215,0.2371713058258572
558.0943789696582,879.3129751255306,0.20971006661062913
582.0981739070795,575.3640118619802,0.23207405375247064
541.8124754037253,480.9330701406877,0.15013315868138682
595.8363755049319,855.8569563320154,0.12439461798107185
606.2329666222628,710.1729445691321,0.2983649869210288
603.6616760155349,963.962317130906,0.14589278498697333
606.9704653241955,740.7460135753499,0.20567254142906355
599.0693855158847,571.1455230727033,0.23504062862427652
567.1458877167227,774.3865004763773,0.1652573658721016
600.4887194843448,713.2481460904679,0.1516299436027111
598.855099988496,718.172229034465,0.21752571423619504
621.7478313233522,472.3774535844881,0.18834282733905255
583.5283396860756,476.5454306877971,0.23682247037741544
618.1629166474571,477.7590189169284,0.21627119419890736
640.4388102810002,184.88738682826937,0.1983927282700426
619.3886323496915,436.98514612889437,0.20757128074962766
620.9880079108669,555.7319985631655,0.2026210746748767
587.6440630037263,352.88286468012166,0.1824694380171062
591.8445444769544,699.4407228976022,0.23579372966618667
602.8164427416441,592.7366591954386,0.1924714975194938
599.8363910857419,772.6713056428813,0.18962687646426493
611.8932907598065,616.4743327216236,0.19481762076565637
601.917067609571,550.4498964848476,0.14860220295598714
615.206677628544,712.371133743236,0.22975485280304747
632.918851668909,729.1324198049599,0.15728164282593277
587.7334103426145,838.1102234468816,0.1699912736050601
575.2599339506708,661.3209512760916,0.1317453477915277
624.0342641015558,341.2923444052406,0.19540270135632437
591.0923290919507,413.5468342044145,0.21544681559686318
607.0495500839776,664.8231813069124,0.1736095680776831
570.606281353506,572.2943640076024,0.23933878342548082
604.1507131900709,492.75613946383345,0.19828530846893516
623.0489806953232,477.5875400613347,0.202288331739355
647.81445770658,638.9022295490577,0.17278825509016577
568.4694120549026,259.425172732145,0.21037355383274836
578.0379282011615,652.3530286755039,0.25291231835382266
582.6358636285084,551.7529383474734,0.2923910448704281
590.3410187605363,698.0605081575919,0.1415357101397232
578.939317573272,939.0255018769905,0.16222368079514016
581.5415203000571,826.0687928352589,0.12129056555772821
579.5002288183742,938.1571778316934,0.1959299149143365
582.8295929720196,563.3880561379339,0.2007113018660999
607.1110027110454,563.6305784312547,0.24007435193916798
600.3978908334989,711.7780628740159,0.21030390062941137
592.7709958368691,397.8083592148422,0.1880559175118282
605.4491758693765,732.5970965062744,0.15682047500018761
612.4776086164669,455.04039122113204,0.190759195853383
604.4693941514674,895.4323886050404,0.1817945879427007
624.1718137683483,768.8528424366074,0.0911433876589115
584.7248575606224,693.7279545115541,0.2438514187963776
592.4905155035002,687.1865693565894,0.1025187981767846
622.044734866579,744.039015093979,0.11003079722620306
593.6583506404662,743.228732361548,0.17919932728979948
568.9697474460512,893.0796844022448,0.32269057324738193
583.0701645345099,861.4673494333982,0.13958007067254274
614.9766882985828,616.9988827160219,0.32103766503291
611.1008632454788,528.3298231835294,0.21618405064420787
584.9656340398685,523.0689408830506,0.13996857045465194
607.5840464540762,743.6264647537226,0.1939473651380449
581.8807674099031,577.9125909466608,0.19030538232771657
618.3494372957441,357.7370991147959,0.12833687920104261
562.4752603367263,380.2134131753575,0.13725269460115957
608.9533488777427,736.856423119702,0.1841541822227337
612.3165969736137,305.50135823759155,0.208760035952515
639.0646157408164,369.7288471156894,0.149027000854358
627.3185607942955,597.4091309717379,0.241819968743821
628.1409114938228,674.2029391710978,0.18332571169565157
575.783394058388,223.97593033751167,0.21077196849876476
591.0969341291203,667.9966985210417,0.1412879146790796
573.8010428542404,993.560432634695,0.15443597265269268
576.9261341343914,592.6494177545372,0.1966350701139189
624.7150758569422,335.0611473773476,0.20605810837771044
564.033832911847,761.461157402238,0.18767419992959222
591.640309613649,779.1112796295582,0.2129446017339258
601.7734344701182,347.5126889974375,0.2580131445195299
578.7131035740844,356.2756275433255,0.1339311313362669
600.0098478418037,858.6328011257536,0.20248828256948753
604.9351690077045,361.7466563721157,0.23109601602761043
557.3773862535418,642.257476995494,0.2740113225997608
594.1821176411736,527.7888468622834,0.2114317463921346
596.5674320054939,545.6911453111725,0.14183705304034866
645.2096225971213,617.3831007828543,0.20996681603349304
554.1591192809185,700.0849326823823,0.11732750654937325
581.394357759979,579.9832109650474,0.19136850319762264
603.2908740953533,687.6544521422194,0.2754134691809303
608.0130812917685,86.76163808621016,0.2492529989420332
590.5740014233944,791.3780635063536,0.16784527883637115
570.9451815112618,712.6164886339234,0.19131450545996714
594.5856479786594,618.0708406306924,0.1928101620454978
574.7974800742436,537.5128934759568,0.18824059003424987
621.6527237288224,397.90886746851106,0.2989897283628245
606.2434057034974,581.9012359837658,0.16731794266468952
608.7554347183896,479.53840846352347,0.2286174156603373
622.1300193607478,395.0220067264663,0.2394686407961642
603.4134438589874,581.2416151436818,0.21633056200367373
613.4875253413805,576.8026706620439,0.2025290317254955
595.3803314603197,441.85246598510037,0.2512801635043801
618.3042601211338,257.9246419395802,0.17874113185637958
597.9169165715958,813.3868217651564,0.1597088756703285
611.4477334060414,1022.7256245294485,0.26355423268192607
585.0786763333966,712.5458302805442,0.25919719517085577
588.3850784160214,690.4463217046483,0.23410107669744856
587.0180805059192,421.83633289033435,0.3466493543434543
582.2932082264475,818.8843435041651,0.1430201149144615
605.512072588828,348.7828715818657,0.1767754433297339
559.885207236874,608.4768374729024,0.14522705451496828
600.6434786475264,617.3845910907354,0.164263438295765
588.6742474257647,361.4590167965294,0.13208313323938164
629.9975069405497,526.7334079733581,0.18604350387392385
601.1006631829403,482.02161443776384,0.16577269689977953
564.8964984144259,681.1304396023149,0.1448749567538971
598.499913034152,628.3950783770988,0.2990913958170868
580.6712091461748,578.6494129617635,0.21089442098322486
633.6441590153194,334.0780845778783,0.17212469689780494
592.1605314217271,537.9062114661401,0.16031561458280116
613.8258103251828,843.414207010897,0.2032793663534889
583.4417134327442,673.2551671008632,0.12540800239061878
603.7730374544275,398.85960772003693,0.15370258890357957
615.1772486410609,356.6799894155801,0.1535282859481235
602.1613922845373,448.3260089313753,0.23033427220531522
593.0137794806466,413.60672221218226,0.2704821188825043
598.8088268990557,484.76223913932256,0.2389233547159561
585.4106340044667,590.877044803241,0.11046127149536722
620.3884869786909,1147.4530916896438,0.21729499197297972
601.5122914176826,460.48451630825474,0.20529036156187902
584.8279566007706,275.8622131108045,0.21637382851767217
619.2101393738232,641.8030817085305,0.24773830026037447
602.4417470681304,749.8018029180392,0.20029771117929884
651.404560043449,531.3644221728491,0.16696125142549745
628.7235675531723,821.5013335726532,0.22110991760490467
583.5736867590857,801.166380294387,0.23003370232265202
586.4910419884811,469.71463448591476,0.2858357636947677
647.8851811355612,411.36020223679685,0.1830285724679317
666.4429654403447,827.3242758352372,0.2668718443582436
618.3990157649716,727.3693134427368,0.21501324214916126
600.0362258386265,830.0309946369094,0.14538949162536632
591.4247313350336,801.9977124898037,0.18813102366810217
598.7021516557611,682.839792966857,0.21841622980451272
595.8184397542326,816.0522671454497,0.24299577657490853
600.5655754298397,705.2512746641502,0.15619269749566428
617.4003562220256,204.8058313915655,0.10738071652874559
629.0682789295905,425.0151277720706,0.17614904721533578
605.7185046591466,609.6914060679475,0.26333369516101923
599.7555027751424,401.3726754268672,0.18434531089064504
622.2228209976098,497.2326500011623,0.1862413580120248
585.2019660954555,517.6868008741269,0.22470906534330357
602.395661797401,708.2168393065652,0.22519229616754538
616.0954516808264,595.7532280311642,0.2853182865446871
589.9980585772016,895.6812367344994,0.2725381438955946
615.8975381152588,711.8448474174177,0.06245132578058893
578.3507185278015,474.9215556591668,0.15543384732496157
593.510893043832,426.32882137577695,0.10400057899128898
620.0858267691731,518.9056890977415,0.24446319733985583
585.6002049985499,844.3116058165166,0.24527427129120127
591.4621234451322,362.3586185334078,0.2217546525850922
600.0308667414133,374.23268101160966,0.1662764997711789
590.2612776846131,783.46629899751,0.23045366782796206
574.9563428434884,454.99354360271946,0.24216866201297493
599.331569768291,485.80776360144216,0.1767894691236652
608.3832080456446,438.0495738699452,0.18555557013752338
587.1735737560163,695.3109932997896,0.2550985527386125
566.7693551379559,454.3328702797546,0.20819224948408355
617.670102368472,829.2791011321095,0.15074471450265936
586.120063156359,884.7472061920415,0.3493473956380607
639.8972387325564,371.50526319358477,0.14337622349245283
588.5147549028063,792.0186546537318,0.21514337015223442
607.6286434111271,368.0161345575931,0.22825556225852844
587.6797648188398,390.7874736234497,0.18799458426147198
595.8352355718217,725.2220974703323,0.21134854474579248
607.671436388038,388.1414813198178,0.20101803889742473
612.9554063403758,832.7541504048513,0.1621106256668993
575.9241946536903,512.7301906054928,0.2388219071531697
596.3976975210569,468.4060597186075,0.2053367504014882
609.1076278082616,572.0969750338338,0.05848634363214575
580.8988950914132,428.62694332699016,0.18523636906234325
625.3923439970662,202.36199260670304,0.1887324818458955
593.9604417834727,593.7613203568405,0.18637202655327065
590.7697938260469,498.74762856795843,0.155744732796501
597.7945404010898,757.5928657987594,0.28971842766065414
630.6624829111432,854.4647260760655,0.2799120934232212
600.0482272348436,934.6884234984993,0.26845861119978603
571.5155045096759,491.62408619067185,0.174259845673906
590.773486074478,665.5237652825601,0.19018890987179346
614.5681051171389,673.6011112477388,0.21062245354133013
628.8847419385279,754.2947646618779,0.24497935661397235
613.8940518705407,635.5746635741242,0.2754078298966791
562.3693773939879,589.7984128187113,0.1676905016312748
573.2361882533486,543.8937971901044,0.13930024280398182
617.6731643662325,426.637453155313,0.16216058268389708
637.598146637975,822.2517847140505,0.2536606237736462
600.7178056997869,663.0070256707846,0.10579737758753996
613.5922793528492,653.8072179434675,0.15374659966246756
634.4099883266863,848.3760490294453,0.16112490342909414
608.25244568812,590.7399113540207,0.17637635839071886
601.3986971172515,981.0997418475617,0.14445281720862146
581.7379289951236,783.3647663734168,0.1413343721357127
564.305986404577,753.2465084604482,0.1850031149422301
623.8660849072465,821.8989531326428,0.12916469518471335
627.2952567489612,559.6340356383768,0.18313538111187752
606.7001482014185,420.58008282575616,0.2639872848812614
588.8174085765671,709.1948929744127,0.13985084834234604
566.7383118997408,523.0031177434021,0.10230815555456031
571.6576055267583,977.9364236616257,0.21372389975168482
606.2118264474981,888.8145020579079,0.2361668137250956
601.0177702865733,837.0532860585506,0.23814896447884365
584.5192959987181,896.9874564116839,0.23222385372870527
601.7153073335887,897.8123331930094,0.18035179647187852
577.8718069793149,455.80097661978414,0.17184161659055971
628.5780748554633,570.5210904280978,0.20669286344875237
595.8509252755887,543.5041782452859,0.13970308876934093
588.4055293957067,525.7527550973049,0.18674307199823123
614.7916039035938,646.6784385894169,0.25075708857099394
595.369247164738,455.7230837587647,0.16426057404974126
610.7565788302588,603.0338247879346,0.18366962450840066
611.2047959682191,558.8322789295312,0.20868270762969
593.0595002685016,681.1906905302277,0.21672142757381022
582.7131429236734,783.9313981266722,0.27647017076958147
581.136267860045,500.16150280716863,0.22314438233384887
638.3008175302331,547.9138039594649,0.18773879323272435
634.2819790245578,601.4043536921973,0.2620655715683929
593.2243115559024,389.30927318990973,0.2621743654865589
586.6585154115119,802.6795305999372,0.18923654766044698
618.9480210044891,738.1283337972999,0.22004194728067308
613.7683451402601,431.7534808383722,0.235542163470189
603.2175959330468,546.687193818135,0.25770819344592055
637.0346857847575,567.3852717215857,0.2037913051905233
604.1520394239402,341.7974095496095,0.17562287598463971
574.704933590826,791.9640543272598,0.2032804673468321
573.5232396917359,656.0152948441879,0.2205486327542154
559.4066041760601,468.50579754551734,0.2408110203587181
620.4435798328502,544.4124570137623,0.2004106456892952
594.1758167369012,738.8074079840559,0.11724682795049482
608.8182325115891,421.68384932112616,0.22870077629924365
601.0020291341053,556.0965902945228,0.24345634208832723
592.0282769810891,506.96911105177844,0.1571330198119597
575.5042771466979,899.1888989761837,0.2282548595962101
600.7007882091763,814.9102320835907,0.17026684275152465
606.5219814430782,800.1458833425146,0.18788283256908567
614.1833238752621,343.71575190329855,0.19455617829330646
651.243492364642,792.8557269865794,0.1520650806383586
613.4531448342301,460.73782594102545,0.22945872949546198
570.6418609103359,882.4754603481094,0.21454824792082988
588.3387352850608,707.8467448358123,0.19529176117815264
619.3914118563052,454.6391540800508,0.17822064001981416
613.6004753126368,216.97008144681303,0.23775408922859678
587.7740497674693,809.5446671189952,0.21420832293832076
577.590685291653,383.1420910628424,0.21948660220627875
604.9934277422001,568.8957321564965,0.1800152279318032
580.5198913879645,391.1704818792015,0.20253675568111396
628.9643135081516,641.9767500866994,0.17906813534734922
606.6666570911435,259.75681488868514,0.200319623926798
599.413409489203,500.0200802088938,0.19379053756308728
573.3669661422823,473.24795776656055,0.1335926803626007
625.78269020904,562.3718133329796,0.2799171300848032
619.8070063393081,481.0803935545749,0.2338786308292999
573.5165058044398,573.2570233471047,0.2018950119575207
601.210904604786,923.2280795400695,0.2105892381559946
618.8358326483691,452.2928659202263,0.1976564019757987
610.2800842342745,724.6632601012686,0.193539935364088
594.9944395583542,463.8530311867745,0.16568528895994616
616.6643956621685,833.5510944640299,0.23378207965412906
579.765524309692,202.6140371507392,0.16195164058584693
573.3790624155293,605.6957613909152,0.2598597454469044
560.5941070889354,475.49975176972794,0.2048913971577106
548.9291896889699,484.1900655648814,0.14396455279623097
608.9940405979621,622.7049589077747,0.2805769553779937
586.1927134558292,202.18351814318873,0.2586631446713656
622.5224267007042,401.9171778782759,0.22794082423591425
625.8817759740165,365.2936947068538,0.23137476340423782
594.0873313236152,593.6284896832196,0.25676653280947903
604.8757317381124,581.7938493330848,0.2632222654937855
596.1811871203316,355.21967533800137,0.25681888541287007
573.8374851579025,878.4584987580834,0.1275978516988096
619.2685671688208,725.7803741806915,0.19599540526251338
600.8701393757569,372.88843408664053,0.15908005585542612
630.3151435615798,429.8225468952419,0.2481407492918615
596.1091302546749,557.9224473153497,0.23615431716229274
554.4355770950623,581.339525792518,0.16830048712514684
628.2994606067659,357.1330931826068,0.22641452197658163
570.5735052774545,311.9711587198458,0.2782269435625837
603.944868014545,675.5773206248465,0.19575440957773604
624.6034634493873,691.3339146624628,0.1913291465181201
579.8246592951672,480.2601507115443,0.2040699654964187
584.800756524769,635.1454368212693,0.2078869938286262
560.2960042249441,441.7121611854507,0.12445780006531645
593.5124640945812,565.6310760929226,0.24634523279943205
554.0672739017324,684.0400390670264,0.19051271909001702
566.437482011044,689.4559956663284,0.2862756123623234
628.5789355226026,758.753633037687,0.2311697533501656
639.5765492725859,875.998720354353,0.2689648327760945
581.9508853161593,875.322431649487,0.2461858888822265
593.8776786842175,439.5367563863855,0.18338925249262764
625.6934401863627,570.4439387815319,0.17076873631893175
607.0092623309458,713.3151383072284,0.17057490815711632
580.1726398087739,772.3919024954482,0.13691136366225085
616.071908449315,410.48583960216695,0.16990354928613227
633.2016433295181,358.999037788069,0.35805064279230736
600.5808526283982,673.0728765458957,0.18183595241745115
613.6623243432143,938.9193525779808,0.15562000443694413
614.6825517132307,452.0539621936799,0.2360936712992389
610.5161617241457,435.03970136635945,0.24546200998174683
589.6120149610942,505.6022656692529,0.23629604939236198
575.1602703698213,432.44139139585803,0.2373605848795665
631.8756020370676,587.9546987776363,0.12211915861818395
569.7860460547101,897.4563255417202,0.1632767542060629
606.9727138261184,805.0974156578759,0.2584929928664739
573.1420444702022,710.488986628401,0.28650592134157893
612.8619697054919,557.4914123296318,0.14148185474307667
619.7589063384125,443.64190197547225,0.15769644558295415
620.2144979597188,795.6034347716604,0.17738138064668224
624.2647525924713,697.6365343234315,0.2625009688836399
589.8965349778748,874.1098046577362,0.19327096102717167
589.1429885018455,1063.6123969625176,0.12920621687117567
619.1855986193854,580.2108633354529,0.15204879180191222
595.1489430305256,738.8364513770488,0.12882067213447707
574.6535524947747,522.1629227999501,0.1672740559190476
585.2660963863806,460.2732635117836,0.20766822516343264
620.1058773844748,653.7441690777342,0.15002233020694783
594.735010660882,666.3133912976238,0.19264297052981388
572.4664452307704,697.054199718583,0.25160775610010666
622.1002669970302,898.6077682181556,0.2668797976387295
619.0198546643675,275.34593800420606,0.24024824199184996
611.109034096162,259.0257660464546,0.2104088254432812
591.5807072877436,826.5550882579378,0.21171856248011287
610.9525372851688,623.621416397441,0.07650456012192418
616.0474851369939,468.61080147878766,0.10877265956587855
603.1410848569498,520.0027894942399,0.21865324523968188
596.3023763792722,1055.797210242517,0.24666493167724612
641.1054179855586,630.7056807951334,0.18749778164545497
602.9647380749096,537.1642598066542,0.1730605999320978
586.9063390616303,577.1368651818484,0.1449194911384657
591.9484527993222,378.901536616068,0.2271218094324065
618.7065340373032,637.9683785025425,0.23481938205096556
619.8897379822041,854.1052298040981,0.31892424060944674
597.4466532895295,485.5784123221906,0.3033488536868714
579.8474759144921,525.5876366567522,0.22681934702334636
630.9247502225433,654.4779972115018,0.2175273692216593
590.8760099061799,645.6222962349842,0.13933075438226877
636.7894607311209,540.5022280601488,0.2457289860615654
549.0731427807353,457.981947920227,0.21732608356401484
601.5221647456793,413.08375488840693,0.10869008896403964
602.9971445004047,706.4084858501174,0.193170558694341
649.0493024740787,133.39924705533576,0.16233166703024932
574.6838151783008,872.6291142730728,0.173780570010935
592.3854371474117,522.9245558693108,0.21555653452396367
593.7554396564186,279.0042002542412,0.1675251298866734
598.3486011611321,749.060775802637,0.2634900964075401
610.4675819218161,705.8298264830447,0.11679415934820027
586.2879568294837,776.8030272011617,0.2581425199563845
609.3494293065456,716.8852628191657,0.23474164971005013
599.8907228415148,464.5051177361888,0.2823624678880987
615.4964307251794,529.0841670334638,0.2260828127190323
549.0542867781398,811.1919322875397,0.17407825295131776
597.2637776582942,401.68924055631044,0.2745227877556184
616.7885171997932,871.1198427894651,0.20661145257175292
637.6203437886372,453.9433084638643,0.21698842910326546
588.1776135328798,458.94469805219387,0.19655410408515486
640.1119908755164,911.5279394548841,0.13742930075776816
615.2352904630267,753.091999024212,0.24508045311102014
578.8615662182046,688.0224094077537,0.1699073143083572
595.2408402804958,699.7475121979351,0.21493076263027955
614.4105825426045,714.167060354239,0.29358150235852964
593.4424048282364,406.8229828988714,0.2881832577317026
594.9146940059165,904.2970496648257,0.1545593150871995
582.396214643392,259.88151456346446,0.18107014545550196
535.1969203621344,884.3267266327524,0.09650889737838952
565.9073505570551,577.2185414408522,0.1777087431135971
603.5709786045686,699.998540831888,0.18417656037823887
586.6659237497656,1138.4557094446127,0.26162521481817586
575.5262006478612,925.9873622878058,0.10382256628986364
608.042538333028,780.7482062636943,0.20455383647962821
615.8723114603711,810.3628625306162,0.16702542429330888
627.7567422492716,551.0346297414779,0.16610239492753712
584.4920567008012,659.8209360221156,0.20895542692261374
601.5295575729025,839.2580071475323,0.23447600719480383
628.5294808090472,294.14311319659805,0.27585606428808607
615.9398957881493,536.7711325851916,0.3067635503248472
590.2059508808675,907.0584374479674,0.1615001080650828
601.9182753014576,754.3932232981383,0.20094479788859793
580.9924219788626,510.0137359477259,0.13810089712147017
614.249157212466,356.5725468637477,0.20981565132003324
601.7206027849564,635.7397048670449,0.18632672389411697
603.7555899001068,615.9784968274878,0.2871362602562008
605.4279712063967,418.63444949016065,0.1658072360713332
607.5920528545673,914.0950743118603,0.1552380677867673
582.2810314446253,868.5397368720279,0.2696300834176802
566.7622653713964,776.2279835376335,0.1737492037296643
612.9305520052645,882.6207171835623,0.2589229653085702
617.9395476589126,282.81508803690747,0.2023285171189505
617.7308056683307,456.3793306255968,0.17651431867385114
580.7287798051852,211.32457492559723,0.22815337903006772
629.3503087596619,601.9150938838809,0.2262096689333904
598.5280955435343,538.0194205035516,0.13868123471839813
613.5389072312931,942.6596758081531,0.2197885226580279
565.1343602496455,428.55169901471834,0.20317462170479875
626.6084684386796,777.2563264228357,0.20165822338715025
576.2265531756955,422.33600066143117,0.14752651810920525
615.8483131436965,544.5708169127065,0.12339754661798467
585.0986616319556,581.1906186394943,0.27428191421799875
598.9385284124435,1002.8776879929655,0.23464028752117652
621.5597436657987,533.306733721133,0.12197303423972085
600.0683579507338,660.8946559803154,0.2155539370974614
614.7474110037662,945.3896464257173,0.17109615611318094
588.786468702526,817.9537963076453,0.19755259478248002
577.0577744762247,319.7438044735921,0.26580552817123737
620.7250673909591,430.72254839332885,0.3103433360873491
578.5729477943618,681.5095079690514,0.2998221513964239
588.1545062234226,613.0213688725263,0.14563979971086058
619.4303061089614,671.6279879892228,0.2170941691100119
618.6192132989092,-6.248348250869071,0.2098255394643665
593.2262680641054,607.1039616295482,0.16565006126908388
614.315513601482,910.8389021147411,0.15049509140319628
588.2268105654953,636.4770148009753,0.17423954271035674
602.2800421203415,384.35582062276717,0.23513305284955902
578.4760359400697,362.69592192941894,0.2000523648612183
606.1174121309308,381.57261174624466,0.24729170054768287
631.290966479536,691.6624333886421,0.15743520393515498
654.416621456042,578.1828886176438,0.19479351988515944
606.825322371965,716.9975023596719,0.1447671869070126
595.7100621686504,583.2017957982416,0.22098800363079943
618.5265691317917,285.7329242244159,0.16362180868991208
629.7761239612902,355.49129253109135,0.16706893230319003
626.676930074918,666.0682177408191,0.24363473028280652
630.7398264001356,650.4956051401246,0.2561668290935958
569.8925442801594,485.1282511646131,0.1941543149571781
598.8537401715664,1048.1883960226764,0.19557705329645508
569.2407651513192,810.5166629404566,0.17750738634564978
575.7070653275041,462.90664555702017,0.22003030151343614
581.2947136130404,421.1736256303268,0.14826964229612521
595.0248073155847,612.4799357779679,0.2668582212084558
588.4483464539976,97.47160181611036,0.20570358233608002
643.7543543345002,697.3009086611328,0.3031599019037637
651.302432848501,491.9955146243337,0.21670348165218076
568.4697889844575,1169.8127761670153,0.17545857647714397
598.8963359325769,195.7998658334679,0.20689895672248018
630.0455312666588,815.6223346840646,0.21859679021685888
590.028978852002,128.74888036906793,0.19045245791288948
592.8603123406331,508.7349085223268,0.19401645606406556
570.6438346194092,557.8178554168032,0.18475632663737818
601.7992897126819,874.7897708193832,0.23625641275844816
596.0239478212247,247.47444470217397,0.18801759176869987
596.4588454152973,748.0392572268408,0.13993706987569465
651.497352211026,469.66562582504713,0.18927007250429514
595.9215833452528,679.5220329290988,0.24549962650407897
580.3192294919827,725.3021492848625,0.2284504752193135
600.6687822260168,597.5024658697591,0.26554877944176686
616.3341788824129,297.8586411670937,0.22830418529314095
622.8331686238843,471.24947390311524,0.27746396106207094
580.8439661684733,511.0316565490408,0.18444736398857994
582.0157412922202,796.7141762468316,0.10950127852309688
610.5201385022526,607.9646692326367,0.23487140485932298
583.4613200655319,211.12883861023357,0.2852861770288753
609.277089666994,268.74646073351084,0.19902691653914364
598.6353785433183,533.4640378806016,0.2731138980388749
603.850813553724,326.10037385620234,0.25724263736163394
589.1932071579175,785.2910962461049,0.17440815624571626
595.6262902046929,790.1582655828103,0.21507250442374357
575.2545425340815,545.0571127903495,0.21297674524189097
656.4473860511528,519.0307871077482,0.2625230027585015
598.6423108742981,267.21674562478654,0.21123206259455626
605.7239324238179,825.9389198135991,0.18323628863371288
607.06445470035,819.4802728514378,0.1939449600248219
585.4659809987378,757.5725906074407,0.1806994405707312
571.1729014882554,404.2676422828505,0.25387594689213533
608.8910904715291,896.4180925338329,0.2791941430452577
617.7509999915911,957.7489743154654,0.09537840043214625
606.3751008117905,551.0035942396557,0.2446347772423082
616.8398276334341,967.820937822986,0.18936284363614098
597.5611509556506,527.7895778312287,0.20661942909571177
636.5448125297046,742.2954982771324,0.1769535580803556
612.5881629854623,420.8509148271736,0.19289558743697338
604.7416027260982,914.1024440799572,0.11342035161399822
616.6202923960345,452.53400548534,0.23075070858874758
607.8949387122673,870.0033786837133,0.22843481877906807
585.2398119561526,613.1106885629166,0.12454855421786429
598.4460131507669,614.7920013331662,0.1315919193068566
592.2105919489737,562.8429578396594,0.20895395935930644
575.9668815767709,724.9647603389543,0.22494291025907706
612.5059521247938,425.7449280984242,0.2817655575624362
596.9377710179023,707.9377916943447,0.1974056613736202
612.1904970130847,372.82216063565096,0.2653898291597265
616.0062145214225,563.101306785323,0.1477957242871925
574.5082573907325,689.6706761109253,0.15768248475295737
603.520161364093,647.0505301812159,0.18109566945805203
636.1667834316339,237.280974122268,0.2569866850890282
614.099390592424,105.307065017551,0.23482952260108142
611.9246507952811,848.4443225718132,0.17914452154761085
589.7838037378682,1030.1100038922373,0.15751004506713215
599.7857629775492,640.3958987516556,0.21085213295223526
